-14.999350149331496,-0.13962484646082193,-39.99501928180564
-13.451449352456718,6.637658496660681,-18.61689286342774
-2.8190496229210074,14.73271730616959,-16.843982571276484
-5.257729492129131,14.048355084763324,0.1288582356372592
14.935841164970995,1.3858747038451562,26.24862094841583
14.667959399846515,-3.1386250245058385,-10.185608042197783
-10.337585209365637,10.868961865748947,-35.30911039689482
14.338011030844523,-4.4069762512839485,-9.665949482723159
-8.043856031569671,-12.660820674165645,-40.74521350259146
-9.621596739259665,-11.507600800647708,39.93134853844528
14.999602537339122,-0.10919579593472697,-4.687754906082925
-14.52410957417839,-3.748365120590523,-1.932105701652447
-14.316897781469486,4.475090827564749,4.331350499369965
-9.56660701829382,11.553355796370656,-24.779070280889623
13.619036865215953,6.2866393934986275,29.281035165004987
11.476041121945633,9.659217368266066,10.238001163845805
-11.488188432830908,-9.644766795095158,-9.671875527862209
-5.523485530196432,13.94600686926945,-20.81599278791617
5.560052810770721,-13.93146843449895,-8.0596744721127
13.112756146125536,7.283929314061674,6.590169609511324
-1.5865603864550974,14.915858209976772,7.227653493170516
-4.626086165797519,-14.26882359504864,-31.19037933367609
13.877178529301576,5.694200213014235,22.271219361483606
-14.95982795604733,1.0970631364988863,-28.24985463579867
-12.726958883956526,7.938798244449852,22.985586740362756
-10.314131214595568,-10.891221110973065,-1.3989586489007588
5.001558174895252,14.141584629140345,4.782221718250014
-4.759280595553452,-14.224951606694077,4.416602168586731
3.714611121507743,14.53277895710146,-30.066502327091055
5.3875654311007946,-13.999076352588686,-7.546633426463449
-14.991533834677771,0.5038980886167613,-10.179070768252133
1.3332973981020373,14.940626427570376,13.362231211728124
9.261357971075496,-11.799459671171233,12.254222857698673
1.6016647451965147,14.914243864306181,23.85460667603713
-6.1998545865790256,13.65876286876945,-0.8475138818883584
-14.07758132019547,-5.178967481388885,9.122856903043873
-11.645640866172956,9.454049334339356,4.685888005974729
-2.00729385859809,-14.865085649441594,-0.9265730134338799
6.617548249589861,-13.461354135611698,10.637045824055875
-14.470626881481591,3.9498047618765098,-1.0510489959903884
5.188311244325232,-14.074140344333943,-3.912526807465605
1.3352209712706986,-14.940454643613725,-16.775108458478
12.756239336802755,-7.891663828509548,-7.060702344870076
-4.154296850509943,-14.413251460993914,-3.157695274827554
12.783544570369688,7.847355491971272,-16.290145941647467
-11.033567493251518,10.1617118819549,10.338731438587425
-14.776008142133412,-2.582553655513683,-37.81063521122928
-9.450403100946588,-11.648599968649414,5.9310445277798785
13.540884935561433,-6.453249968960246,10.95792365854461
-4.503553935895789,-14.307969875089812,7.095315334010627
2.364206501131791,14.812512535691106,1.2719270815761168
14.759077020033262,2.6776193748787582,19.379245536694352
4.09519853765532,14.430154155004226,10.406939439387063
-0.6582456968578627,-14.985550126791077,10.706409366730535
-10.689248532052522,-10.5233058408474,2.9264065736520823
-14.87128747389172,1.9608184181283241,-8.539308035565965
-11.9850107099346,-9.019951124188694,-22.024057739076547
9.389398645401371,-11.697828562504021,6.465025348081773
14.95716591150016,1.1327788380163155,15.12379832174306
-13.6455483556078,-6.228885138993113,17.169557961505465
-6.160031884722803,13.676768886663195,4.676834627423726
10.766420271118998,-10.444337918012701,-16.277419469397366
-3.4307826205446554,14.602387839342192,-23.96976946379216
10.796427625840336,10.413316019404752,-31.802016823146225
-3.603134641328487,-14.560817997504763,-3.2262449556185384
10.726610999470234,-10.485218951745557,4.2038032661506985
13.841223868091925,-5.7810485064011,16.327285772827512
14.942205820918053,1.3154790782534793,52.489648558513416
-12.060226980817296,-8.919132534678837,-16.226340607957752
14.485451745401129,-3.8950850737378526,24.174933497962368
-11.224235869948338,9.950704956723673,-8.879178994156465
-7.28082320039032,-13.11448106196574,-15.080679248576613
1.5552904722945002,14.91915116710029,-7.640409089632622
13.631286837531492,6.260033478579861,-0.8787630214863864
-14.852770537667594,2.0964749832501077,-7.020343197349839
-14.92883634358179,-1.4593989949809951,30.30803919003175
-8.063097912294849,-12.648575099857947,13.130218700258025
14.553223436841378,-3.633687878364189,-14.318986460602057
14.927297494261593,1.4750557676954301,25.737030241820012
8.137644663785377,12.60074360210402,5.252606932006864
11.795530537536598,-9.266361709864427,-25.667013716110738
-14.990118339465587,-0.5443823737204146,9.051832775157612
9.667738466453134,11.46886362915971,3.68528076502539
-11.427652897620927,9.716416481990468,26.310116153198244
14.690641039740177,-3.0306873546279394,0.874973589775909
-8.707066718114124,-12.214212588878143,44.40120293400084
13.729230813013421,6.042203346710774,-18.31798309973506
-14.813303384073345,2.3592462464527046,24.703937461054768
-14.963962652931304,-1.039144706803198,-12.853966253430485
-5.126231908997119,-14.096870092867416,4.3882967658229735
-13.15823299565784,7.201451550346033,-38.47641703599368
-5.48839109256034,-13.959855415265029,-0.38107671234074536
1.700253215671574,14.903326440852004,6.174820576384094
-14.82151534837573,2.3070940114920844,-4.13808916272116
-10.495472083485625,-10.71657901313539,31.680782835592307
0.118252572771827,-14.999533870391868,7.601226479713956
14.900930391977752,-1.7211256355750937,9.811244925257737
14.827557950358194,-2.2679341323701423,5.708008681392598
-14.999527508820693,-0.11905676012421007,-2.3238930412727496
-9.477676590142572,-11.626420190783724,22.2482067064069
7.052788445285357,13.238511062277713,-18.267217573379884
7.469391088439813,-13.008005103317569,-4.289885220015057
-12.35313833728373,8.508817380807452,-1.8896690080092282
-14.625182016145711,3.332274147576703,-13.283421806035008
14.2452246242865,-4.6982523775997365,2.622321143756496
8.539928026478806,-12.331651523723892,-13.682998238423673
14.99604089807734,-0.3446119312964003,4.503103912142069
-11.319801082278305,9.841854675702692,-11.769411332427696
10.479698730828536,-10.732004216877236,0.3378893250902264
-11.113851327791814,-10.073842795266371,-8.308126805569792
-7.597233700447475,12.933755838919534,-5.083344080269288
7.520615348387774,12.978456949175207,31.68503284017536
13.292329935249636,6.950824763469902,-4.057745808041347
-6.604723477640873,-13.467651160610728,-4.679973501543738
-13.999745893689969,5.385825369626354,4.615518996707596
-13.878265065027039,5.691551527031097,-24.59564877231389
2.8356232343805545,14.729536342758422,-18.26296216596642
-14.985645881758003,0.6560621209530311,-17.99890147670576
5.715093169476813,-13.868587169001731,3.057711905813465
10.82786051790535,10.380627948481077,7.651100826498988
-0.6871317582562169,-14.984253399712504,-30.892617949383105
9.128211594890356,-11.902762413780644,15.754185226424559
-1.1281465733265683,14.957516014000838,23.303542826016077
2.2087392604647667,14.836491191628888,1.6500189234602656
0.1613756844004346,14.999131904496481,20.470818886070884
-2.892071277546562,-14.71855712104927,1.6580244967404443
14.265774152842491,-4.635481401115866,-17.049838982361184
-14.9710614325117,-0.931299943069193,-6.3853614596433115
6.294800297019364,13.615266770087354,2.0831186341255896
12.215873188272507,-8.70473677074987,-2.457279252819894
-12.91516288333938,-7.628798574927299,-15.789762870575183
-12.994828399064593,7.492291697395687,27.927650051030565
-10.636265633583067,10.576854606727833,18.340918504465932
-5.801593293810579,-13.832625031179443,-8.478517672507245
-2.0550893678913957,14.858553351183948,-20.945167342437
2.341383661023251,14.816137234512016,8.659483791072097
-11.314984676442416,9.847391622753374,2.056230216652227
-14.956588406365535,-1.1403785523115033,7.0850402374400705
9.04790383104937,-11.963922277584476,-18.051414544905796
-9.1885022746274,11.856282130126926,14.51164046172968
8.811641939453443,-12.138985391327612,-2.3436531257500706
-5.794041839688321,13.835789791693902,6.7852568361007926
-11.256418861448223,9.914284362253923,-9.219353293166058
2.975291334882141,-14.701960463576796,19.31348603917804
6.682270702365396,13.429343180524842,-2.528053217654535
-3.137432277953157,-14.668214571012303,5.732901662517529
13.225860665469504,7.076482859273141,30.276773280676828
-1.2661258841978915,-14.946468654681082,6.298961885078744
10.185593248158161,11.011525334079511,38.157810219138725
7.0060357485763625,-13.263312674052061,25.832945011705057
14.455035407228285,-4.006488659134903,-0.3952839828751138
9.226192832508538,11.826976190783851,30.894287355209617
3.629559725568646,-14.554253543158097,43.371363473175435
13.216418596043079,-7.094101739767104,6.969987304869298
-13.636700026801496,-6.248232740466066,15.593294441775956
14.917233098675638,-1.57358084627897,15.140878645792746
-10.722432697738169,10.489491743763153,13.92954937863882
-11.409274625743269,9.73799016811841,2.452470410034884
3.11885907921415,-14.67217495956218,20.04063081060066
11.585878598985856,9.527193557893192,-15.202727999545678
-14.994221971872006,-0.416302123740353,10.385241537795487
-11.280011004693328,9.887434031840485,2.7031119370957675
-10.924880432252833,10.278472043109286,22.24424247540032
12.373453160653245,-8.47924860356861,-1.80132245482514
4.435541591537824,-14.329199935437362,-8.339480401637918
-14.709812643239154,2.936224106024862,-2.677376440672582
8.230190125723162,-12.540493231705401,-12.589556621915184
6.225620253051072,-13.647038230502627,1.9807553944764809
14.847491672489888,2.1335395556078813,12.088465935449582
13.653002836387722,6.212528756439586,-1.0111072586618017
-3.7169439900130055,14.532182471160558,47.50775804989909
14.994619958076145,-0.4017117285623705,-16.12817893865908
-8.686839651749821,-12.228606497258264,18.20937416520261
-14.941506243685595,1.3234013638743003,16.62271378857664
-6.731930592771024,13.404518286537325,10.152960135389561
10.217124221033504,-10.982275385910265,-4.4887744123984294
-9.257671172033179,11.80235249729925,-5.8827684412934875
9.158022013905914,-11.879841446450987,-12.711132528148633
14.276184675721556,4.603319574469388,8.684678093560182
-14.177766730877456,4.89805374866634,36.66827020174378
-4.932001777011265,14.165993028078114,-1.8354556584749846
-8.176039898903776,12.575864645086378,4.13643437199962
14.679971710414039,3.081952397660211,-1.108617086434119
-11.540134020863075,-9.582552205989728,-20.976890541081797
-4.0874890498968135,-14.432339840336827,-16.368595601104488
-14.757713795392577,2.6851226290952876,-0.10087667440023113
3.7611278507573482,14.520809801462777,-8.777463114155763
10.521784273978339,10.69074626449726,-13.723898940912719
4.815791274552419,-14.205919695674222,10.162034094208014
14.124750014393765,5.048904537707497,-17.230817866380974
8.985558272919729,-12.010817729195784,16.930496740223877
7.1883346935451105,-13.165403310707033,18.632384117104895
-12.511198437902618,8.274654895971377,12.382013498403214
-3.5598674112137005,-14.571456482266234,-13.062612984472533
-6.290650609928037,13.617184543943436,-17.414375006945626
14.993093326736531,-0.4551400836758788,23.874772617354676
2.426999752831949,14.802353603388672,-1.8008507252872832
-12.280200972043694,-8.613748550208385,7.528016318022207
-13.981028691178382,5.434228255828687,-4.764688036026775
13.411675216929375,6.7176608931682775,28.74953496564031
-1.886122367775921,14.880945615577504,13.835422329577
9.495283649464241,-11.61204497133115,-9.316270919952526
14.34600028678869,4.38089896841491,-0.8031307155133628
12.546653883821856,8.220795358089019,16.61894867995048
14.354088399282078,-4.354325002293197,12.20752162607426
3.7438640844593505,14.52527045245958,-39.89629576732897
14.396563253755385,4.211765245193535,4.772758108306529
-2.713025819261765,-14.752609630299958,-0.12169894707839778
-14.958085575364482,-1.120569462404262,-14.333206030922105
0.564921487508121,14.989358348940478,32.67158585240126
14.101129313116655,-5.114504090795339,1.2500512660148393
10.214618061252065,-10.98460640454373,-4.85315520976574
6.3784079021863604,-13.576299666452808,-15.12346690261402
-5.649062460222343,13.895614175721297,-13.90433153096474
14.745462316252524,2.751606999550763,17.497571827396676
-12.537747427443586,8.234372437874777,-13.31140688862894
-14.566802569246692,-3.5788633542771633,5.348376352601941
4.803517739218561,-14.210074501177417,-2.0926534251990083
-1.7187541733576635,-14.901204115492332,13.98492546144752
-11.345326427134793,9.81241908306799,-5.973879053093867
-14.97861804448764,0.8006256786722001,-9.256628935012174
-10.715962328081098,-10.496101723170689,-22.747093743964616
-12.834169855698688,7.764282588563808,-21.421288525952637
11.817950695820512,9.237750881635392,17.71443327522112
0.9902212887256678,14.967279706057292,20.892163778723727
-14.931706204769858,-1.4297376732944083,-23.341936593359947
-14.789624481792474,-2.5033992265646887,-33.685921433521465
14.349776556195868,4.3685137961612766,20.276749761697182
-5.5400806283101565,-13.939422751026045,-1.0739641231444446
-0.22384186029791076,-14.998329734393039,-42.44181014216661
9.59612902354848,11.52884676641209,0.6239162274021756
-14.838301002272157,-2.196548056831248,-20.010124278556507
-12.460853798698109,-8.350276798254708,-6.652874276260698
-2.448633819606096,-14.798790234930735,3.094900519064717
-4.843456429157267,-14.196511184754343,31.457805000859388
4.3691100344397205,-14.349595029371322,-43.04537839716407
8.915645638274096,-12.062804933046214,-0.38380717428308486
8.59063021850517,-12.296384527531083,10.972246025452863
-8.57149385800709,12.309731639729062,-26.493879799496007
-4.942289616821077,14.162407046242619,16.902775950181596
-5.6062328501224235,-13.912949120521077,-1.2311215288476454
-12.04538875351945,8.939161581299844,9.048680209175739
14.775552965650892,2.585156583119314,15.00675028862136
-8.805373562113157,12.143533111563482,-12.949092611057987
2.1954318856384147,14.83846618877848,-7.117189639537629
-12.203854545507138,-8.721578654813861,13.443629558499454
-0.6337148325720641,14.98660753843171,3.6928695946601877
9.997075995035862,11.1829545089604,-8.534460681591291
-7.6141610830035305,12.923797855200092,-8.621333278796179
-14.876708556266783,-1.9192557234247485,10.135245237084494
-10.06124064827246,11.125261193228226,1.3524885740854484
-0.3714386038469148,14.995400406910521,-6.317698380425764
14.930769899034145,1.43948262306146,-1.335668841991925
-12.03701338469941,-8.95043623386968,-7.023880029721992
-7.123844639493962,13.200410506963529,1.495006839769354
-13.894035944290657,-5.652943054618473,-11.269421199287343
-11.768687049118768,9.300430373907663,-25.83188827447989
9.035966390884727,11.97294079926906,-1.4268381060132602
-14.983265497829693,-0.7083466817500654,15.51669546125468
1.8973514242457088,-14.87951805580116,9.645783158608165
5.2571583844303715,14.0485688139758,30.881668281235665
-13.008531200684802,-7.468474810884084,6.19691737753886
-12.674132647245614,-8.022864927195453,25.455936004510093
14.99130428320914,0.5106817876479632,-11.412272801734007
-5.326030828345246,14.022603025669524,-1.3289748528614627
-12.017008294381807,8.977277518978616,-4.927303687608353
-4.786735937305505,14.215736318126753,3.2641059738177804
8.100637856123994,12.624565985566825,11.709393675680852
-3.866254407777572,-14.493173456987966,4.175635279693296
14.663556132065061,3.1591330395817665,20.202494392118272
4.081017937467723,14.434171004739644,11.141317497130785
-2.3760813372680003,14.81061232625737,-3.50215778240097
10.034996874379832,-11.148938861218452,-3.313835100182311
0.9559159186430589,14.96950983688126,7.238016461826161
-1.5289590528357706,14.921872677876312,-17.576733285720238
14.299275484996512,-4.531083822241406,-17.033142559874886
-8.80823108274956,-12.141460587296923,-22.257807812423138
-14.974440528145266,0.8752890202901915,-19.081337710509956
12.316041927803626,8.562424378211066,2.3867628067808786
-13.139226594889083,-7.236071067102606,-38.64042659140994
-14.916220536300283,1.583150312653125,-5.770125367623836
-14.79824927698427,2.451900963790043,-34.466018017039175
-4.500252028412119,-14.309008759546296,-10.725820257105793
11.02369742971168,-10.172418344630154,-6.878777213518208
2.4521193854921663,14.798213085345592,-2.453668359589945
12.576361431860935,-8.175275722273883,-5.743756625171603
14.90951739735728,-1.6450808423601986,-3.8657260155194466
-0.5220514470041849,14.990912656895873,9.466505220239696
-14.988888109808295,0.5772635720773934,23.670340282223133
-7.13507209097349,13.194345237889268,-0.8648380184529721
-14.832236399078814,2.2371328529708547,1.406460748519272
12.774000964044918,7.86288111130898,0.7435470367529776
-14.709351857354333,-2.9385315952949416,2.7541858113502853
-14.48839094179103,3.8841379890302075,-34.128708245052216
-14.981013690041623,-0.7544725434271806,10.31951631930935
12.906986517659961,-7.6426238317049195,-8.041580556887979
14.568546014999646,3.571759651605628,-13.2992635558287
-6.441963543929129,-13.546257996165881,-5.264508058890899
-14.419461295056017,4.132691128112703,-0.06324495652691448
11.291992546138042,-9.873748241572846,-1.8517953436279246
-5.434381291861227,13.980969207271315,33.628294294494864
8.864345923230227,12.100552522645884,-3.837049062431119
2.2247980995506915,-14.834091593900707,-29.83091265922995
-13.397012038117207,-6.746856190148313,11.879889188697142
14.696537649616603,-3.001962876752762,-9.256311656141024
-2.266773452303477,-14.827735434513665,-10.412788689555986
6.531811584807388,-13.50316397814142,3.4235646793321353
-14.997762684135495,0.2590646065228824,4.244953077534612
-14.067362418528994,-5.206660598287361,-3.6553599779819836
-4.4576739859486745,14.322330209675954,11.935018405732407
13.656550185974254,6.204726989801126,-24.301511207491036
4.264282921009699,14.381094922487126,18.516490305291022
14.011100522510716,5.356217149080117,-2.1258526029591334
-4.131927345873897,14.419680177050374,26.48953723009176
14.46641393522536,3.965207164161481,-23.60655395236524
-12.525024764788567,-8.253711567618113,4.134653707468302
-7.716466536137369,-12.862975713133885,7.192170406161486
-11.65816837896061,-9.438596826213253,-24.501358335311824
-14.474735002791185,-3.9347231921663393,3.953586643275397
-14.053238525119403,5.244662711376192,28.559002495266103
-2.2258984192242135,14.833926527635734,5.561811734061648
14.921162134874875,1.535877776639892,3.0541717485409507
8.690966076367479,-12.22567415971118,25.909171164296225
11.12561627365849,-10.060848002594282,-14.486029764830493
-14.871226658294722,-1.961279602102766,11.205611876467602
-0.4565581223470649,14.993050212712518,-0.6583613812867926
-1.2009811571983817,14.951844175888619,-1.9803921318888653
5.119834408829408,-14.099194857372758,34.93259322397706
1.4047060360360935,14.934081858364234,-12.052677523515394
13.664480307778012,-6.187243159788284,15.115331942402344
13.72073333991626,6.061474788771324,-11.822292319266456
-12.416243701456214,8.416465549507638,12.015882385981032
14.43613567190911,4.074062697386155,-5.010004659130808
-8.861785115339618,-12.102428044386183,-2.7464840173392475
14.143582272382744,4.995906374657214,2.379281866351468
14.956480380502603,1.1417944769706658,-22.926558993189843
-6.159033898890333,-13.677218336793477,13.039243609605082
4.760406302680824,14.22457492628151,-3.8329198893925813
10.237600829786546,-10.963189738846712,14.37252536864271
-11.562592813936929,9.555440723435739,-2.9062039894117007
-7.5353069627411005,12.969932497020386,-17.403147447766795
14.835720382406787,-2.21391073330426,-4.223482635010651
5.837022255168775,13.81771222716208,7.305183226178182
7.340230341745274,-13.081323271371367,40.71326014527354
7.499432460988021,12.990708709038131,-7.656491469123762
-7.833313245832731,12.792153985653139,-9.31536141330879
14.160159918299593,4.948724187927796,19.012365704732613
-6.751367232443157,13.394739284237406,11.175228318650925
-7.791399252661253,-12.817725917089572,13.72424704262878
5.697551237515517,-13.875803036072737,12.811341289547915
14.963856806997303,-1.040667795062634,-21.627959756266854
0.7581440581847061,14.980828334476008,-3.3991611542103293
-12.621991861061995,8.10464813914119,-9.925201509813242
3.6318245954263477,-14.553688539612777,-16.812564918526824
-6.838974028102435,-13.350222254439824,-15.522938875298562
-13.68210977553911,-6.148160057293329,-10.83205372998718
11.440779316074726,-9.700957099218444,-21.89299441513834
7.893988421842314,-12.754800931250143,22.512917955066797
3.8966642949484074,-14.485027006273556,-21.367230203179915
14.937031418108047,-1.3729866767208936,14.506551740173911
-1.7820981306397417,14.893761319853704,-2.801299819287403
0.1411212603174708,-14.999336144972764,3.066072141051294
14.85599556226445,-2.073498457674603,8.555479837657275
14.99980044338989,-0.07737349985926925,9.896021934673405
14.917313196554735,1.5728213490075593,-14.090682525638805
1.6435973809939255,-14.909681004273361,-5.935646806889503
-14.919210211236384,-1.5547239860952695,-6.279149104594287
-11.32987596591629,-9.83025485920647,-8.785490592094336
11.22527499499796,-9.949532717001011,-5.494221671187701
14.428158945635197,-4.102222499997658,9.14094957084771
10.884470222532379,10.321255155009295,9.153300738966541
-13.337958593917188,-6.862860959319416,0.25179607259373543
-12.086446868650794,8.883569220267349,19.340125437316363
-13.56174105050711,6.409304149358988,-3.4164522272008315
-13.398747417798456,-6.743409199658524,-41.514395757160855
12.621909639177034,8.104776188177556,20.507689191145364
14.989984970676492,0.5480424973420336,19.382175699618436
-12.373213503280994,-8.479598316089323,5.818173773837503
14.614392956215125,-3.379277810617197,10.92073192713975
11.330125550913872,9.829967192240707,-26.569925407648068
10.253142242668632,10.948656271506747,-35.40016654246596
-14.876095960830677,-1.9239981715576633,-14.655182302364171
-13.452214802009223,-6.636107060664705,6.308790858303242
14.308846364752537,-4.500768346616843,11.7678582413173
14.976569025149624,0.8380812818151087,-23.53895115006535
7.900210458517687,12.750947992644615,27.756395569452813
14.452656029612347,-4.015063348156522,8.198501751164978
-13.823045821970556,-5.824380156179913,-6.409913754096793
12.571745909612984,-8.182371586779057,-1.3389080894595553
14.399040630275207,-4.203287871141322,22.956266156007295
11.305051250177685,-9.85879385274162,-2.7810079938158134
10.287454466148763,-10.9164225187062,19.1268919292299
-14.947495073177066,1.2539501733910148,13.612305046976223
0.43561809932294826,-14.993673228116661,-3.4963905798554475
-14.532517346582596,3.715634477619666,17.542669518781068
14.94459955104723,1.288000100480937,-5.405819912200374
-14.660546008237626,-3.1730727600147794,-4.975668813403042
11.444975421483317,9.696006270709749,-17.28123322431679
14.593568811386017,-3.4681045756062923,-31.192223825242372
-14.779515433377396,2.5624058137928443,-10.598307455184193
-1.4999210399997456,-14.924819492166934,16.60559601758658
-13.492985554749788,-6.552811672809888,-26.66927099187337
9.810817462351078,11.346711449597505,-2.6963394468174635
-14.054540612155916,5.241172405221946,-7.446003644928581
-3.3280872335777985,14.626135353048543,-14.428181749505672
-11.843877233926772,9.204486518414328,-14.4532577785796
13.450922725252509,-6.6387256186173,-20.618024800897043
13.622860069765931,-6.278350382033242,11.76866457576154
-3.7974399684031352,-14.511355887248248,-1.9383897520786706
-0.25047895576671153,14.997908530615796,0.3771704774564931
12.521641906908958,8.258842773363677,-22.480736131513
-0.37566757957987573,-14.995295057772374,47.95858054555304
2.9460543374836594,-14.707847015814167,20.916322269322343
8.998338933853576,-12.001245619996904,20.56902679267656
4.485393955824094,-14.313673220423077,7.277058677185186
13.236962281235995,-7.055694832200127,27.10186467493807
-14.53076802002207,-3.7224697108645333,2.767127013503366
11.409199646881056,-9.738078014557555,6.542348176731219
13.001214323222944,-7.481204857616355,-15.80502050937213
-0.30930421913798206,-14.996810690944374,10.538919595120968
2.8618588625801284,-14.724461411225592,-21.990639698659642
-14.780000115186725,2.5596086800681745,-3.7226995427668896
2.7498102694848288,14.745797485447701,-45.511288976987295
12.69313862641638,-7.992761213158849,-22.621434692116022
2.051377116629122,-14.859066320781075,-24.844741315887006
-14.36975722078922,4.302333949797028,-20.104353316947705
-14.986289249798046,0.6411977240972422,14.309231303990764
-5.918100044274162,13.783181485635389,-15.52080950126637
-13.003877683255665,-7.47657442943794,-8.453080828119983
12.909254036063086,-7.638793113600403,5.764821225818841
6.160064509276951,-13.676754192480997,-12.359879449367629
-6.451919247274275,13.541519044281987,17.28659016013607
7.412658494191598,-13.04041770989293,-13.692954026496388
-13.94771841134253,-5.519162175357473,33.11419406753342
14.983477112887604,0.7038562407007352,5.651687636588754
-2.2356128203196652,-14.832465584575694,1.7526045112963466
12.180476718378298,-8.754198245016175,21.024816065632763
-5.595981446448864,-13.917075542332881,-13.548923183408522
-9.029996309139019,-11.977444078639468,10.777993410256904
-3.6450746876235716,14.550375614452223,28.063324299927714
14.628063200075793,-3.3196034423690333,-9.485850191158649
-11.394229438841819,-9.755589961403176,-31.303248350582596
-13.986748977462586,-5.419488263798466,15.2223145659789
2.6461511189864906,14.7647514119096,35.75929962138715
-2.2652110589102574,-14.827974199417486,4.251844130728967
12.648526326232147,8.063174422931226,-24.51193621748342
-14.56660055115906,-3.579685514535119,18.346184351623414
-14.093307932905416,5.136017086060488,4.901551661911542
14.953775467223497,1.1766899659063508,16.446267579520327
-14.014737515027061,-5.346693593698177,-24.007151707829905
-8.696888542256994,-12.221461847240656,20.769295182325592
2.186102349070058,-14.839843547672272,5.549931980250885
-12.55629750848427,-8.206058303377553,-23.488693102699433
14.063779727481673,-5.216330106202588,-3.7775522962674217
12.681550915328748,-8.011133901135633,-27.687551185434845
-14.999249784895401,0.15001963309931574,1.318700112186803
13.74547215138139,-6.0051640556773,23.5127064894926
-12.713284558319305,-7.960678095438849,-9.434698376950257
14.842464057318455,-2.168239079808724,-11.645308044646455
12.091216219714523,8.877076676931004,1.1876277891888298
-7.923793675761491,12.736306127914883,23.393435685444818
13.160541929405964,-7.197231142901243,0.4161093719692627
-14.853858989797935,2.088749173835648,-18.50187852198229
-8.775423941663638,-12.165193571993692,-29.787223435767295
-13.431713653938678,6.677504647590844,-25.517569204707225
2.4030506604357997,14.806260416573087,13.653866422490083
-8.402120167737227,-12.425955765529803,-11.726025604398966
13.323957961310487,6.8900032108287785,-5.944298462559952
-14.982168473889647,0.7311824806347151,16.265178773106655
13.825125395222198,-5.819442224679463,7.747751913969695
12.582223850317941,8.166250239889195,3.181821248346954
-8.023041969484407,12.674020575803551,-28.939494722476837
-13.9343689924004,5.552779554748263,-17.905975180522823
-6.824647243009649,-13.35755179696043,20.9890867145534
-7.5782941581502445,12.94486221064349,-15.704050718569649
-13.62503317954659,-6.273632987054195,-1.4463750769947132
14.701364677119507,-2.9782338105566644,2.1657304140593894
-8.268890692995301,-12.515008857659499,9.089341387622694
8.845426908058585,12.114389081344266,-41.02034280680436
14.480099857795265,-3.9149339851749154,-5.026994732738389
-10.412091099856866,-10.797608944960057,-20.811368273061802
10.205582322050219,-10.993001840619153,45.036490286734896
9.750402182331898,11.398669101380975,-13.773379462704135
2.8033456111534516,-14.735713534960793,-5.635363170912993
-14.571463529192515,-3.559838566201058,4.448962537819489
-6.349842770232711,13.589683469210142,18.439020092940744
10.403990956368421,-10.805414021674695,11.90135429635862
0.3785431504282243,-14.995222742035674,-4.912682485576457
13.655645196521245,6.206718478127251,-16.9295731681012
-12.879041638026662,-7.689621998900565,-2.7202096559698554
-10.70437197555909,10.507921802567108,-3.990691467692069
9.572648041601393,-11.548350941655046,-4.192172227903965
14.020452576720222,5.331689182983125,10.757141830698282
-13.220892535912201,7.085760407596426,-10.738234063499204
7.51127191668843,-12.983866688839951,1.4650355880301242
0.17817482470769813,14.99894175373184,-18.407083500979645
-13.184400613958257,7.1534313759661625,13.147656287273199
-14.554309344642387,3.62933595860941,28.896114639989925
4.4401065107360065,14.327786087645213,13.419843450787262
-11.89633808601479,9.136582519915967,-1.457695739191542
-4.151416109462541,-14.414081458285676,-4.257986728068415
3.662760997522877,14.545933516795174,12.754167545205364
-8.206643909596472,12.55591477117789,21.083751861096975
-11.223152767188243,-9.95192654536572,-3.5854800477339412
14.593703311790138,-3.467538557456219,-31.678629701490674
10.308800598758166,10.896266801755694,56.642023073643614
-0.055115706478198544,-14.999898741621537,16.129413662255086
-14.705211966369726,2.959179113223232,-0.2466444760284799
0.8204642338628266,-14.977544473008649,3.9678236309384274
-13.759625222751513,-5.972663872127779,7.5710202204146855
-14.444237650193445,-4.045243961089881,34.9592706044969
-0.9537183503120145,-14.969650006205159,-20.018689130975567
-4.155399599974818,14.41293357247334,2.8679606688713664
11.791181896006005,9.271894601175115,-12.462868282216345
8.074790237547317,12.641113978586324,2.4642570949457734
13.269363281951957,-6.994569185559979,2.5246456702136157
-3.946888695954106,-14.471422515487195,-9.470646476927929
-0.2654046122099791,-14.997651829263729,-30.08028464971191
-8.529454722344383,12.33889793050729,-7.417784534764863
-13.457725126454234,-6.624925238884013,5.5725882041779835
0.13668780189166682,-14.999377201897884,6.681039511996776
14.386536727103072,-4.2458875396923075,16.603080122622128
13.179920302663678,7.16168282008033,10.003493821995866
0.023568211862886934,-14.999981484634892,-1.6626954225918105
-8.765121265767215,-12.172618830654121,-4.337813882046966
-14.958517819379908,1.1147845743881393,-10.51913896772465
-9.461111819489753,11.639903914513697,28.84538142267583
10.03868532482872,11.145617836130418,29.774780320046354
7.668639899888548,-12.891546147993163,0.5582095721611735
1.5663310855011139,14.917996076236006,2.227931401170907
-8.611753986253344,-12.281599785054455,-7.1582095010668
14.76441992367232,2.6480000599448434,-21.786967546227693
4.339673985626407,-14.358524635159332,-5.491270002379666
-13.819201089932008,-5.833496484615552,7.065154848790719
14.894979283108512,-1.7718894310222182,-12.735600906229498
-2.642281833615385,-14.765444345218539,-8.095231976251965
11.85125907880275,-9.194980056916677,-7.745655734974392
10.481629351882786,10.730118644719134,23.879985251560104
-14.515162624293868,-3.782863200051297,-4.283914819842085
10.300777344508006,10.903851892742793,-4.602337534569956
14.660704675305482,-3.1723395819924423,9.098135886189493
-12.748874904966923,7.903555444071016,1.7885633131217578
14.271700678514497,-4.617202588460769,-38.91141404715606
7.477247669034077,-13.003490581221815,-13.831103717705826
-12.882698267941498,7.683494344188529,-2.9103498830051673
-11.81608386979979,-9.240138634341868,-10.647971298601249
-12.471063117141059,8.335021579353226,14.834924995912282
14.89229808798666,1.7942847205917174,9.739438312049295
-14.919427932447611,1.5526333013631946,9.967222789442568
14.388564323460018,4.239011289163254,-7.61725789530118
-14.041292159735184,-5.276562752868506,19.73548404709939
-2.5003950112890263,14.790132683229077,11.897727239082279
14.703351655708394,-2.9684086795077973,-36.24438572165059
8.06473031548534,12.647534342253898,-23.603597089107115
11.00685548890875,-10.190639442462839,-11.449056919521075
-12.699338029629152,7.982907591173454,1.1009413551411387
-7.063136319397314,13.232993060287251,20.726062670250002
14.84638940611589,2.1411963015963487,16.489337287635927
13.603271647597444,6.320680381230452,3.488738632137156
-10.826962617909937,-10.381564451968732,4.9874126036973
14.999965489202209,-0.03217643147929309,12.424150126443848
-10.275665623874058,10.927520120609843,13.049792259962048
-11.27464755771609,-9.893549537415103,-9.863749051183394
-10.873621192795055,-10.332684169933689,-17.364397001612243
-3.7389179366448806,14.526544415759558,3.7960781446898695
14.838886425316048,-2.192589714600329,10.219959719928505
9.7006034941342,-11.441079138332684,7.964076564808917
-13.010299569634023,7.465393834780638,-2.2136743738695923
0.7416437344006315,-14.981654266843309,-10.90312534372635
14.200051499181406,4.833067082153516,11.905736783529724
7.902329750505049,-12.749634681600991,-14.179476881406586
-4.94535096041021,-14.161338350536287,31.921667633722883
-1.2707690595494752,-14.946074601623389,-5.703610553359973
-4.8898166837348365,-14.180609747097211,-21.507560317192787
1.9597613535896508,14.871426812413677,14.614507862655314
-11.222058136945131,9.953160863314908,24.02501205792563
1.1829813751526244,-14.953279074037306,-20.598909034226867
-10.483253521622126,10.728531847433613,5.942687889861264
-9.109717109357105,-11.916923016764287,23.828629630646983
14.2420834153878,-4.707765923358527,0.14127909103548797
10.09467259082333,-11.094935118516025,-9.702172241159511
6.944912077972477,-13.295420122329041,-4.4154810071894355
-13.701337378043172,6.105190746654608,1.554044843571734
4.806643937985829,-14.209017350028962,-1.8430769694219107
4.454325349545724,14.323372008029198,2.736902117324041
14.287732173917979,-4.567352551138246,10.404405765174696
-1.41603280862192,-14.933012123644255,22.65306636772403
-14.28169118873674,4.586207233603752,7.67359001965041
-6.042209870464783,-13.729227941922224,-10.92345841925075
-12.79188117984227,-7.833758732613431,-17.852911300123377
-8.396741762188293,-12.429590813020477,20.464852467502322
-12.15710611875353,-8.786624540593818,-35.99616066617502
-5.537879935546331,-13.940297192652434,-4.074875227325418
-9.580622001555868,11.541736527200039,-11.742132554691098
-5.486864911907479,-13.960455344954854,33.182918199179895
-6.5859378486897775,-13.47684765266698,5.071246174407504
10.254446387147981,10.947434827077425,9.054352107094589
11.20010545484921,9.977857375221243,-10.630828471424078
-1.7095967036812763,14.902257517261004,-9.574704626616844
0.8422080956798789,-14.976337520354276,11.446687949014724
10.222680772404619,10.97710334402974,2.1064983676954236
-14.309675675129549,-4.4981309532522165,-16.227801966979428
4.910404866151647,-14.173493713635823,-25.849792836920418
-2.5881328732844775,-14.775031919770063,-33.800235175607504
-4.894283664998132,-14.179068636780501,19.0050337873719
-13.848003720551901,5.76478906427466,0.24448469868819195
12.113892699400987,-8.846106695456452,16.724749055738155
10.46612407052916,-10.74524299121663,-3.195612977781334
-12.902807068387308,-7.649677755041354,2.148023953702922
0.6961629005500681,14.983836531939934,-7.437164132048823
-7.874830024168887,-12.766638245460246,4.14149088753295
6.687192182345435,13.426893189281655,6.5441452509485885
14.414717451409562,-4.14920724910538,-4.196867704277974
9.925005510872987,-11.246966951544795,9.943823904587513
13.031021830587623,7.429163482569809,6.903027950994957
13.613506243050898,-6.2986068118604015,-35.07704669342337
11.950721715542834,9.065332342371843,13.561147221932673
6.154291392416309,-13.679352961936122,-18.01277418638174
-13.789315444037776,5.903793660420501,-21.67129065144674
7.0674648036248815,13.230681813478984,-11.814247336781321
-9.472685379393724,11.630487165334923,-3.232211002797321
7.1616599160271175,-13.17993274820363,3.910492402630598
14.857026211782426,-2.0661007096484756,-3.304618133525305
9.769415473333481,11.382377665030816,-3.6447390695678634
8.10041895475723,12.6247064424251,2.1003499258957032
14.734670341819175,-2.8088235825545227,-18.30356249064864
-14.381874836720602,4.261651813663656,2.2275189512320277
2.347496268073823,-14.815169971059376,4.088021346208225
-7.0641693057228725,-13.23244164997839,2.251997643565893
14.827483418534765,-2.2684213614486644,-11.4719217565183
-5.222446358268462,-14.061509664150876,19.51475428505361
6.528482455749953,-13.50477385315893,9.976523408113588
14.10149916263732,-5.1134842686898905,9.313680255772661
-12.491245485526548,-8.304744801636751,36.38211724377252
-10.761091153737352,-10.449828571845362,-40.07528689869454
0.5429330158175766,-14.990170904307103,-1.9024213973161557
-5.12493821996971,14.09734046696375,4.098473289597693
14.25212001652183,4.6772935587428925,17.058217968033816
-13.878478138467585,-5.691031941579425,28.05826102745869
10.624413971425469,-10.588759500705422,15.056723776544533
11.647326047476001,-9.451973124368639,7.459028076228248
5.399265452407842,-13.994567966694618,-15.571371614689687
5.893005938894648,-13.793929135824659,9.36918409814572
-5.9412820665898805,13.773204689004569,-2.663458169296728
4.414173499673591,14.335796884539743,-7.619585774878963
-8.961265764689227,-12.028953233536525,-3.0159047503010026
3.3802310222126937,-14.614172512888677,-24.68372353012053
2.1233943658080006,14.84894596822464,-13.459203655433868
4.970615649346353,-14.152490242585335,5.572391381450545
-14.99503018253275,0.38609561630748257,4.964993083497863
6.586020919349266,-13.476807056936515,1.4705515050202966
-8.271684629447126,12.513162405681793,-34.358334095607994
-13.16061616194409,-7.1970954028674665,-10.601448008593811
-14.998865045917212,0.184519197816612,22.351822947937535
9.398993568785864,-11.69012061075171,-4.64510742815101
-14.992785691414797,-0.4651636392794614,-20.938353000918912
-11.981698972284988,-9.02434982353548,0.17672337957460543
-11.980020766469757,-9.02657755934958,27.133236500547497
-11.483038842528083,-9.650897312736847,-12.563469344949425
-14.999999192593991,0.004921603359056145,-14.329411927278791
-5.524942307378406,13.945429806934605,-18.65248275301705
-14.998593315945154,0.2054228392494585,-9.777966676162396
4.138478494230312,-14.417801349470494,27.519307015017162
-9.846432004871176,11.31581975702373,-8.498673387060986
10.772516913530776,10.438049595000658,27.89739943791716
2.0453020980503123,14.859903745573556,-37.37632605698894
-14.483803503042258,-3.901209566949821,-14.60947414019299
9.860136400508562,-11.303880314448046,17.78456001626258
-14.990933411569348,-0.5214551274019357,0.8845564888883959
12.888390907109828,-7.6739416094682875,7.226428300022698
10.844241360244554,10.363514332539967,-17.69331409694428
14.697963686564774,2.994973033004343,-0.6984876892734193
4.882901066835675,14.182992532307665,-1.7347522901912724
-8.819182530794494,12.133508127847,-2.938664660373936
-14.332312321567187,-4.425474383278405,-0.3235947969350392
-3.6315959386805954,-14.55374559823548,-12.476467323223222
-8.742877782287277,-12.188604845673993,-4.100743326832443
-12.91598990758177,7.627398292160036,-9.69987601139682
-7.526015503649914,12.975326224755243,3.86710597611938
13.075958662734678,-7.3497826532798864,-7.650991847411241
-14.686864971860796,-3.048933796973686,13.716887597490977
5.624755378649201,-13.90547111500926,6.181371691781577
4.464704792755668,-14.320140052162358,7.751725333816287
-14.641675405925543,-3.2590399364713347,-15.263301431814439
-12.811681515005017,-7.801334293444856,-10.325674704690178
5.3282390673442475,14.021764098758277,-39.12666144065103
-3.269294050033621,14.639389209062472,-29.23177274677308
8.527924240195828,-12.339955759786193,26.807778013128022
10.261016036475274,-10.941277343125767,-21.7979601068169
12.202740800650133,-8.723136875697213,0.5812152776241089
14.416984283920717,-4.141323961872948,6.637885338596673
14.808657445780554,-2.3882346311717657,-9.675281555605952
-1.1116732775772489,-14.958749363630659,-14.80771730045857
-6.684720438749037,-13.428123944012839,-3.1940650575750626
2.6333848765535213,14.767033693058982,-17.293019637900766
-11.831215527059808,-9.220755888334692,2.1860506233960733
-2.401099925019589,-14.806576888331445,-14.88406004733107
7.604781644357726,12.92931924509716,6.612483775161166
-14.977150864978004,0.8276182499731521,4.202635315178434
-14.557556672549302,3.6162886673377295,-6.0372198040610145
14.960108672437965,-1.0932284797088057,-24.204579907611553
-0.49361885364787794,-14.991875814164263,-15.106749753642104
14.677783674245935,3.0923561263281925,15.287216206108026
14.803404549698728,2.420581281006494,5.421313899663023
-10.848209006215887,-10.359361049671765,7.658762339449617
13.997291173109742,5.392201759502708,-7.423651064847947
11.700916203471959,9.385550596492854,19.322494019496453
-0.21782474044444072,14.998418329358943,-10.514645788497132
-10.907198370284116,10.297233789288827,4.065547692867913
-8.517189746311,-12.347367283163434,-7.792023222691395
-10.695301206996335,-10.517154182174128,17.268467036958217
-11.633164886693693,9.469396745252407,11.160618160715305
-11.587575811863607,9.525129227696256,11.087694108598704
-13.827280187229057,5.814320478255629,4.668012794701184
1.859591782108357,14.884284275836547,9.281108913513721
8.152464695151584,-12.591160367269847,31.34363160750784
-13.629655050986328,6.263585490046645,-4.127328487545074
13.28527563375103,-6.964298337611704,22.766816555232985
10.755204727324553,10.455886919498298,-5.499573244878079
7.208152076987862,-13.15456360488692,-15.194147971547755
-13.869626014164332,-5.71257159493131,4.785501028170989
-0.8760514902799342,14.97439594061738,5.829483000917464
14.637425958465476,3.2780728043228438,-2.130424868382822
-3.4364884371668567,14.601046100236054,1.0247337259045741
-1.874505073835373,14.882413471213782,36.61947297211544
6.659798721664806,-13.440501515453647,-49.42911233916229
-10.853856904002019,10.353443403401968,0.6712628666723872
-2.2973539066871873,14.823028200318216,15.249483582142451
-8.453859196791434,12.390813721496457,-15.932634679465348
-10.43979073656391,-10.770829558430231,2.8750662610970235
-12.056881846284911,-8.923653968231028,-21.72129054080759
-7.0308832434403925,13.250157765744117,18.80561815614671
7.145805386901052,-13.18853537632348,-14.01187482743427
-3.5108802236760055,14.583337068551927,2.5385133743612625
14.641466697172838,3.2599774470966354,9.06596366330657
13.324928215693921,6.888126599199815,-34.05022112927648
6.229121874866134,13.645440288538301,4.934849684572939
-0.8847574721980156,14.97388407245728,-17.15929784267008
-3.1767095419560594,-14.659758404763885,-9.43888018685972
14.510942596109679,-3.799018948677366,-5.759009282864529
-14.938796303227322,-1.3536487767074956,-45.982384349627814
-5.447444982019963,-13.975884342962543,16.995063781566724
14.809926435997037,2.3803526966305,8.437132284195263
7.844739337970276,-12.785150164127979,-20.018876636732386
2.0169599666848694,-14.863777194669952,-2.757877305922938
-14.099646651651708,-5.118590069400633,12.90030470560276
-2.839216963308633,-14.728844049526103,8.712990045019078
-9.531532166321185,11.582309552174152,11.414169307824501
-9.600115961492826,11.52552703896402,-0.2826858201465181
14.92255702174425,1.5222653949924,-3.1602439931364485
-14.66211252702716,3.1658263131121442,32.99745151466124
-8.79813538485612,-12.14877828218717,-45.78967728578466
7.347356989994186,-13.077321792384843,0.06196511419145197
14.364076070778143,-4.321263545873904,39.63014451292659
8.378407112615246,12.4419570106667,-16.29817383283919
11.5218193768419,9.60456548977779,10.701366727969168
13.753598357999483,-5.98652922876302,-0.7504504561632193
-12.34473621194183,8.521002749534356,21.559107104850092
-14.478797613488359,3.9197473984484987,-8.927404918551634
-11.348171332345428,-9.809128779444857,11.20872824184036
-1.2254598613202583,14.949857796256557,3.22608610502705
-6.16542869129225,13.674336877983894,14.34716942720327
10.459003930805583,10.752173583764046,8.36934321654089
-5.084069232505244,-14.112130953158475,-31.882641049505853
-13.354286055502149,6.831035349624599,29.060644971601278
-5.013455151640291,-14.137371305956826,-6.884697434116117
-12.71406459507073,-7.959432233040807,-1.586027207736467
14.068646572252549,-5.203189754856785,-16.437326396533983
-2.4506252022703023,-14.798460599602839,6.570687590284182
-13.627971546709038,-6.267247523601478,-8.340389585037128
-14.938826736878305,1.353312870525473,5.717918951295649
1.035966221798138,-14.964183037750283,-9.703046122744965
8.94933531986972,12.037831919931943,-35.86002446572531
12.63510379838274,-8.084191487347022,2.69608710943387
14.546637987997187,3.6599621919026917,-3.1884828163848598
3.046589674857793,14.687351407011745,27.491109530860726
4.694810244145852,-14.246359421672022,-6.490153356349785
10.500324303826151,10.71182475185614,15.758514238631232
11.81865132067513,9.23685449491893,16.501940941718964
-9.397903489177825,11.690996963822172,13.140608377946444
-9.890522187265812,11.277303350677533,27.054139666753525
-3.588677401983031,-14.564387886365028,0.12258960123769055
1.9575270451282965,-14.87172107953855,3.6317617466168817
-13.211010898325815,-7.10416716049929,-8.886291931141827
-3.8005024679103756,-14.510554124202395,-26.42702388911968
-3.7915680051933656,-14.51289123717235,-6.746450156791954
-5.397253954110688,13.995343859828402,-2.220660134775212
-5.649176406106655,13.895567852113418,-21.52308858821715
14.999669664181877,-0.09954880924410328,15.194397117011773
8.185796875192693,12.569515882407147,0.12169366336670716
-8.962722146315853,12.027868128971955,-4.186398333702895
-13.814847502871759,5.843799147164279,-18.724480312427684
-13.2545902218857,7.022523624018078,28.01085800597252
-0.13804022534691912,-14.999364816424267,-19.818998571275028
6.225399741213577,-13.647138823288122,-11.993765737086362
-10.883599723630434,10.322173078174554,20.665479087423364
12.947187770173405,7.574320355244567,22.505204538895477
9.357941779354272,-11.723008387534993,-9.68260904852816
-11.480576554328403,-9.653826287032773,11.749960903002567
-10.760201228062284,10.450744927114378,10.057994407990943
14.470938236953085,3.948663893304814,21.494529082864823
0.5212714887283593,14.990939798259445,37.345161507898325
14.810312464089076,2.377949687450885,-3.5326024962963434
12.887106702722237,-7.676098021302983,19.790025657766293
-14.274612539405327,4.608192362505304,-2.968830042225913
10.314286278191622,10.891074261591829,-3.817969596681668
-5.944322130387849,13.77189291311043,34.29821239761672
14.246622481431663,-4.694011916427772,-14.719023661232248
5.409548224978074,-13.990596413364106,3.1482380738743534
-10.166261054111768,11.029376055772616,9.733909946292037
-7.434214348012661,-13.028140965916922,33.60500041662335
11.742910784358546,9.332954854203237,-23.324141039825292
-7.9062149202340795,12.747225801525131,-28.908361137101632
3.0376921546288886,-14.689194204370303,-21.16066374932217
6.152040529112831,13.680365394540933,21.764999205736363
8.988079823709885,-12.008930888410479,1.1960323339222558
13.111732649231538,7.285771540137373,-15.002686263093883
-14.693627105790924,-3.0161767978628644,-12.447310759594892
-13.553129804153224,6.427493485937858,-19.875062655724378
-0.8800641140425121,14.974160649437904,-14.40764917523569
-0.5356534493700968,-14.990432795025564,-13.638926844530493
4.647487898701073,14.261867207046457,-16.1667224940317
10.604787668322833,-10.608415457069352,-0.4924311455613704
10.45256057364724,10.758437500596232,-4.631828437314478
-14.997943372603999,0.24838396116464273,-14.064076496548756
13.918921118127603,-5.591389353938914,-50.940341151402265
-5.751968076404295,13.853334011999634,-6.922369160970966
-5.3694592835435175,14.006031093866968,22.5953281402733
14.928567610474266,-1.4621453756376943,17.714445987792082
14.933248956844531,-1.4135330179736427,-18.276160328652576
-6.44722175363543,13.543756187241783,-4.785734715960383
-14.993663243053689,0.4359616426943151,6.396217127829908
-14.13517134913754,-5.01965446325952,-4.048915312457121
13.431746805561787,6.6774379631173435,-2.6364303936199094
14.6881504719549,-3.04273490682495,-12.755282268068513
-14.424948513118004,4.11349734336789,-9.383125267006061
-14.920799144451186,-1.5394001724518371,12.439977410866986
-13.664421165483661,-6.187373773442344,0.5141036741128494
-2.8057336574958316,14.735259028710525,-23.823075844442595
-14.46905411853426,3.9555622754453976,-15.72260160469972
