-4.99953214087335,31.6344049667276,3.3369095044656114
4.390105473655066,4.599930927106745,-24.506594236217605
-13.672467357969468,-33.51342123400297,-11.291293846475977
-3.4294649652917664,-10.813603612441707,13.893997022664724
3.4714074613038055,-19.72708727779337,23.2743866381837
-8.875828548793049,5.473254840108175,-50.379013620188964
24.28598176022617,-5.817139660500134,14.389343881034215
-0.8288375723999887,-3.726520437418024,13.004829940300906
-8.299044423358525,-8.055690685342435,-5.793953509841391
16.0273003082067,-18.483154317828834,-12.975700404224735
2.446947829705963,2.1035320482220636,-14.571666460953722
-1.1143689886609927,-12.985465368889106,-3.1197521146155225
-3.993959450309919,10.6215976301696,-11.572189733367113
17.13486658109785,-33.37622479256406,-15.661820913411235
-8.981557221783078,19.83884943901963,33.16990477147575
20.727509741181063,5.454943360564136,-10.616825180009462
-0.2316137276600606,-29.527764249155073,-35.19184195791633
4.356760212389765,3.086717844126872,-14.377588467853837
10.497009028353402,4.461012333691906,-7.735368145147379
5.326582293470237,-0.5028157569326991,13.69658047997452
6.567531292641089,7.894162782491421,-10.665333765656491
-14.333828016404356,-11.77345294907301,15.065022370346648
6.751861427341348,6.095171304704494,7.236559373699111
1.136818633258764,30.188065616730782,-8.35684443794369
14.369616642479478,2.4414388042518036,8.144450320918109
-5.041796299213842,-10.878215116598051,-17.749891898746593
8.658155721580608,-20.745695572313934,-5.973781874486054
-9.65583783623167,-4.846367113581317,-47.72766366310483
8.215239760154686,10.516587494943195,-1.2036899263816476
3.0201874550942405,14.55853392952674,-7.89609068900402
5.847865911352943,-2.586680044249149,3.0140112943703885
-9.198063191964621,5.3698690649649565,17.504473367845527
10.042038728576825,7.27208269295829,-28.436551348018842
15.560749646204787,14.074005844894657,-1.3903970388851212
0.9874952618079424,-10.492503999496236,-6.895529304409846
2.057118529456143,17.09640046199418,4.291859941152071
12.911359225767873,-3.9755754010792197,-7.74791637273887
9.56367595846387,3.5696079224060084,-34.99517293783499
-4.871720079463103,-11.729297948462165,32.03642878698602
3.4188355866420475,8.880710562352972,-24.131959785407176
7.332257560369268,-25.55413128765381,9.492495800253304
4.485452117916114,7.4401262464655655,-6.880390094567274
5.598487575868875,2.2199197485271154,17.007751050323147
6.4196704938174545,-12.315416914356572,9.835697933608838
3.4627293584302716,-1.7499343436731096,-31.3791437721628
7.844574815261039,-23.739397988821334,-18.61729411001024
-5.508528691273808,9.87097745617118,9.434042573502111
-3.7167503389828,-3.2646874111466104,-42.17743162344678
16.143772188061508,15.287066242819183,-29.77219008768699
3.87648439173908,5.418037397711328,8.037561664495907
8.782051019030408,3.6700138290600948,-5.788514412740654
6.551656171842043,-2.825477208868302,-17.33905195648354
0.6063310743245318,10.427781472553862,-75.64223120432281
3.794500655288613,16.770713817486826,-65.39236271486956
18.655949991892104,-17.027961154853077,13.812459343514252
8.379250668465957,-15.988097098355789,1.5640034605810802
-2.1645790469835786,9.695635659720681,-13.672579149651423
-1.4940067380885127,-21.84728115475363,11.081648104730272
6.56787756758249,7.347379859745395,26.22662532114688
3.8376270273258433,6.61130359564584,20.519908447634844
9.463641625425828,24.125747423356742,33.194486974537966
32.646569202881416,0.6983262238516527,12.596555872742094
-12.798765582961781,-18.512733668526753,-37.49389533510703
-11.278485460283424,-6.770855799424872,26.07615488985922
-16.567524655388027,3.253303409370787,3.1054959809767593
-5.769835503908544,4.589437553915338,8.454622196183136
4.058374713255071,18.820585126245014,12.284751389147262
-15.902252830760562,-6.517113683284548,69.41299507113483
3.336042676527127,4.503953520444285,-55.34334650937843
5.291767969186827,3.483516795024951,13.049777663802818
21.324375839699744,2.6951388123343487,-47.75995883574999
-0.0021716198912326108,-6.4899482986323545,-2.331879913899943
-2.4947057222688884,-10.369489321745704,-66.6192105164224
-4.21301338539328,17.77407606021151,25.755136739220884
9.752621423411592,-10.341169922155533,0.6457089058655363
-21.884740505553992,-15.860808723763718,-31.68893095641991
-7.127709926093667,-40.02262513483197,-19.490307985120992
-0.8319782937333232,9.3045713552332,-32.838034193658956
-3.1888075732479364,-25.39081972300703,10.972846127153037
4.186470364079637,2.604487954564442,32.63881195600813
-7.686499838852997,6.314147120790533,5.996874780138036
-25.675945403825192,8.96254861399334,10.062566652855121
-6.863541142335614,21.154860001239445,-52.15354854206395
-9.65389585558701,4.563397364850835,-7.052681853529374
-9.254080133925264,-1.5116534738190461,-9.165652479659226
11.671491272255562,-6.238345035799222,47.23680354233085
13.380462797573331,-13.236912270196004,-46.384802819106625
-21.87952177942599,-10.997692174919498,-9.582228874084471
-18.993623181785736,-16.037472501590837,6.7084660751800325
-1.2085732028037182,9.386844501146262,-9.920988569577245
11.484557230438302,0.03602267031239371,-47.641938588286365
-7.150565124784699,-3.5196709730391427,27.290600881474045
-6.330075174793587,0.4227322352973943,-38.545367020508756
1.159149790207033,17.897327137368126,35.59524075581471
3.2874084860359694,-8.273001286919984,-34.49874398855946
-5.360053248696767,0.6228056480321302,-17.18306107716301
-5.318793293995354,2.6281112549741,-13.958140472479117
-7.628059139006588,-17.14848199316361,-30.22522764191089
8.354109824587239,-28.853886377927328,63.449558709179676
-8.688340222246762,-2.7968970577077266,28.390317786429243
-7.14444508382364,-11.183037138456287,0.5718828662314261
12.252653182206565,10.406502461735021,-2.723604542673574
-23.60380745817393,-34.523365145160085,-39.70736546816896
-19.936996086393947,-1.7019779409179563,-37.291783290898685
1.60175975737647,19.476117654701273,-23.024107476180262
3.711968589349581,-10.143905918513372,22.603824672366443
2.243565883087455,-5.543204801429857,-54.51330787635308
-31.48376191878532,-11.13352715489686,11.971048918020966
1.8982266185558356,-15.474213411130101,-35.667449527497425
-1.0615407158102803,-5.123892871896051,30.345527354330127
-11.418919782538486,-14.666731754876524,-21.435155492028596
6.860331037488773,-8.61709238275382,17.46518947688953
-5.152463890793182,-5.187675847001657,10.717775604052038
-16.39709252606771,5.031729024977582,-1.2916904646826877
-3.22301165194222,-7.60232741439295,-45.1263378669474
13.402791975884494,0.4225277471119434,-21.213557256176664
-4.174212796349088,5.480630710865211,7.867051733864787
-23.178945204718794,-20.24722460145413,19.36285341963594
-11.1755360178655,-7.9558047798920075,30.835492297772205
3.165938552934364,-2.889489446611249,-24.32607137679378
20.025610443246723,-2.3885278568213697,2.009544020930379
19.194842294202104,-10.357665702151122,1.8294734572475462
6.478756225110636,-24.858510316565987,6.405601002380065
6.432876352684462,7.397342290123614,19.605093166893287
1.8073283342518696,-14.765207042771758,24.138935253645545
11.910886099512759,-19.041911474016807,-12.276158382882068
4.187971980248191,-3.516271119973938,29.829812444064668
9.733628775234513,-7.274397102453789,18.822168096405452
8.437202923209291,-11.48414059497776,-46.69902366975928
14.903867673483449,1.2060956127356792,20.25251283809241
-7.8413614826638405,22.22544970848257,3.449240524689959
9.38355165977756,-6.53369420835721,-3.6662976422536375
17.757273770502437,-17.511606012882844,2.14077750597573
-2.95085281462221,11.535001208634396,8.680561933728072
7.663848537495768,6.528498633616072,-45.00125123518486
18.633979208467075,-3.211234742310986,-13.474514019288865
-7.573148932379125,-9.258533769212372,-56.73627781546137
-4.702244600136963,-0.032701265131345594,-37.819505286779275
-11.825522944333484,-2.95742678542616,-20.36602909768804
9.358231645608964,8.60087104183913,-6.578622368301147
-1.6460767005615884,-4.962901072250523,16.353976745881376
-0.23260551596479795,-1.030385826826867,67.82037121691313
8.048283920735736,-12.065451277970245,8.863794817020263
4.805383029198072,21.372663874181807,-26.861938220782775
-2.4505603936460947,-1.4255467779755178,-22.94863859069483
-4.084328859775377,-6.256906962605311,-26.992420613911445
-5.18978047811604,-19.38940596432632,35.383422009784944
-6.980472208929075,-4.093922212711635,-13.439861076807581
-0.7262470677626296,19.444262571340793,8.585780837531571
-14.289335852034505,8.17176527038098,58.39019923004524
-9.618084869689852,10.557224707646132,30.774229022256012
-10.398199702010388,11.117411013876245,-28.228066133077892
17.660946361571376,-9.92811971953367,16.265472807397813
1.7223231233566332,22.136527663623134,-10.337353916078651
8.548907382524924,-16.274443200725234,-6.866343789462046
15.803839480691826,-20.66137045620513,0.8725347144288153
0.8645808102354151,2.1126166377056106,-49.71171389223356
2.344192189484325,11.684403161516073,30.725692803014045
-10.341134827770432,-2.5955407265455883,20.79219266910744
3.265897856173644,13.189115102782008,-10.663036900657861
8.531220292723692,0.906585096191756,13.467936823651744
7.6962376888227,-10.418693124904335,-54.04868651473769
2.1272966508175357,-30.027572958523113,-64.0421080152598
-0.372691036566002,-13.161456451349196,38.870961900040385
-17.873566228971235,-7.547068424971561,61.590115373943966
5.030656168590363,10.941643992542971,-27.72184736127624
-12.587391088116105,0.6230906939549267,-11.160601158608062
-2.8782421094287676,7.0402073773777385,-33.766786668608646
4.468040880418062,-1.749663070139693,3.6251142580813385
11.614745524808903,0.867854247931108,-4.458192880225237
-23.862931337300935,-3.253386091799691,0.20989996234711994
1.5605282807171923,-4.57097943252956,-28.297007863481408
-18.386434877895603,9.62025727171058,39.61200505450264
-4.163576016131806,-18.58304169484559,-39.226136684325674
14.061728437447194,-19.833076151628177,16.845060825732883
-3.1279553599407857,5.4718102279740615,34.7192304240696
-13.394734431097833,-16.72673142100053,17.540724064644515
-3.6655241837627224,15.670241156273939,0.39041992202117165
-2.984890637317684,-1.7655157705533402,-20.699314340935896
18.097637339222295,-20.497722438557734,-48.0001603004565
16.16040641345764,2.1141012152500855,25.381465189804263
-10.422122255510827,19.110286592236843,-11.292462291556992
-4.3851640311603814,7.157945935153949,-3.165025229000639
-7.642522766747442,-16.076247782745302,-20.349572777010888
-16.737925259349332,-3.5005982915051566,-7.387779899108399
-20.6044932693735,-13.126342720460611,-54.33989115494693
3.9933263168794264,28.34117536378031,35.87929086843243
-6.406411208021171,-20.806797077782687,-7.006431783684705
4.5756499769242245,6.209347678958121,28.0606333689756
-7.117368534584867,-13.119024365477726,-10.455121827012572
8.473517465784658,-9.928714121358514,-24.105142592829942
2.855881695171432,14.68019778392644,29.541556189075404
-15.730257699241644,-11.672437496561951,23.427764829336468
5.00546043530668,-17.286026256701724,2.0370264640831284
-6.528740037419349,3.9796030286305935,7.310165048068524
-19.64065020704496,-13.88596827581546,-1.1740444579272151
-2.704034335398667,19.174220679815452,43.174208159418406
25.39438172039346,-3.179053581100095,-21.899411365681292
11.132864799785803,1.6248753387021746,-30.49616231920141
-1.867759985041518,6.792553263290494,-15.780093941694744
1.787506738069813,-1.6658722179226568,19.660963427988655
9.016255050853143,29.511938836142374,4.803598934065197
13.055758789201297,6.7672955681000575,42.8061654362659
1.8468108095835345,3.7813419635466348,-8.891690573292168
-13.440211211518633,7.881349850839332,30.42918298821507
6.281713141532153,17.433969128621825,51.06016693546469
-6.8341198385751785,-3.686184673467494,-50.49614943181873
8.01983754122275,24.56387755645474,20.448857113453982
5.220196162712872,5.359710033656008,45.879282982179625
9.981871735370069,8.55747871833424,-35.74607260331178
18.84618300286666,-1.6711137469885355,-20.425353003628267
-2.1349966416019077,-14.521201401213382,-13.070879754547898
-2.6451104508002703,10.192132593843938,-38.70783985576837
-1.2731340427908624,-14.271167123179643,25.393042783539073
-23.26325355713148,4.883076237748164,71.80372690935522
2.264639249206852,-8.955714812367617,26.87576758962371
6.775828648935207,5.699458371752727,-15.847674393789928
12.067988438817057,-14.002339498190883,-2.06348128292219
-13.407619625282475,9.107097926235166,-28.99019729228997
-5.525069973769793,4.57531246287457,-28.659804383261186
26.488673791795318,0.7295897846331901,-6.143565870121339
13.278040021535391,0.26518328019762144,12.30794867613737
0.17464390382413814,-19.390404889830727,-57.36659061017252
3.3816582432204156,37.95806320469431,-14.639144982107997
3.2832287020445055,9.654372505345473,16.75977647833759
-4.327932788459116,2.444135213012965,10.187197436858673
10.773787924055911,-7.454010072281725,7.498004075641053
21.10188399265184,1.5149937261429227,49.860192821427816
4.85664957654559,-0.2012755216249042,-7.9947742001106965
10.29957459184427,12.37568549549307,2.5283031315135545
-19.349038290685122,2.054189976522065,27.825097293661567
1.1084264594255462,-16.914195612304916,36.791062336609
-10.978609978272642,-8.711169756623985,-18.398543192364123
16.413405285319204,5.154952701921207,10.99155386027567
-8.795377589249023,26.417543237186596,-51.20780750685889
9.71845256711057,-21.724412924978235,-7.835201945495862
5.6747969081366225,-31.11979709161577,20.614235341975238
0.6084448058537585,-4.57820678522671,17.231713336033984
-8.73014267718692,-8.472356964057463,62.0495876347297
19.631620166279337,-23.64705463625348,12.055927458057726
-13.360674004986087,26.252734998565476,8.124222543252387
1.7360650489660974,-2.6531588874817613,-5.180957096365362
-5.787288494435306,-10.493778435190743,-16.039212233117876
20.108333276267754,-8.954969544565992,4.80323760848301
-14.90851645873599,28.396126823623327,-27.152237353503015
-10.677303525996752,14.479882250456118,22.034225435664638
5.395570761414293,13.28727210898167,10.628884837239008
-2.0888984523686367,-3.9041239828465555,-2.4055547616377337
-6.227303611914099,10.263556435802952,-74.5104986336218
6.462376013592845,-2.3912341967829334,-20.55260433679825
-14.79171305633674,4.025564773422037,4.8935204051776715
4.880547226846932,-27.378197958909574,-10.581004915245657
3.3309582115086322,5.5532463257758495,-2.7443773304158428
-1.990292323504802,-10.910952939169636,17.175444422305095
-3.0516134030906477,21.605569649312848,10.162371597822146
-2.091676694403148,-8.376215598316174,-7.745137802406239
-2.024084993763082,-22.464142383400972,-24.28392708416281
13.700715349722142,-2.324677342014511,22.037001529655683
3.6906672248010377,3.625552139805007,-39.509727712386436
-8.56664428812652,-2.6185448477512003,11.340135839465722
-14.63838867991166,25.783812153884643,-41.756081017978964
-3.570402772017446,-14.560389508911696,-11.047440714822775
13.054163953401153,-3.1164577590883353,20.16953667606115
-13.109140462278575,-14.089375076993793,45.362751709625954
-1.1530583646927592,-19.006972279294164,-9.766672737848305
-3.7551212767480173,3.39522568157613,-51.25324092417518
-12.688759961974094,-16.935931533216536,12.072541314936592
11.587032928492453,29.04156957315315,-30.895476241907687
17.01382618046123,0.7617624240381627,13.741650835563746
-14.384759441149892,20.7082407295222,17.284375153231988
-4.511813706867961,-14.704376223346276,31.798036889633302
-15.316056353598102,-1.701362642503281,4.180025527335028
-1.3393201206024077,-6.708744602769786,5.971932589204602
-9.787052346442206,25.010422320087265,-16.176228292587098
14.265981119540907,12.841135530288136,-16.57478213664063
1.6601472707816514,-9.45166262698779,-19.824735388176254
-5.822980977705385,-12.984524911004097,-15.968217457139913
-1.9489204248294625,-4.428587876696133,-26.204473280550364
-8.24946074678602,7.668901406132955,-8.26721746496333
10.27314863715586,2.3667743784212885,10.98768171280982
-14.956839967167351,-0.2861014378837572,37.004919914027596
8.12870879864959,14.244797096573704,3.9671441209319265
34.910856871561954,-10.205902419416661,7.587784569804721
-13.315425425448744,4.697091984491718,-26.633174598252612
-7.996271891258845,27.167996837599176,0.29872426048208134
1.4505501134934786,13.94466010562045,52.6067928488641
7.9305716812114735,-14.767998724967452,34.458928605659864
-4.594825872750137,16.959838969837513,22.23674568800867
14.052249919600328,-9.243624421481547,29.92854444555342
2.9099141368217585,7.641251836124143,1.908460433446979
-2.836714606928642,-23.43642801620238,13.08382173409668
-7.8244213732582635,13.15869946184183,-3.7287160454861787
1.746399819050854,23.213247689933997,25.149337766252806
11.644360295339025,0.2600873050168915,32.05972835165459
-6.850813937263328,-7.454256260139127,-24.419310494102096
-1.9525809489100383,-13.355193447579333,15.437038110672212
17.51819671429027,13.516826362303641,-31.113988553598897
-4.580922874188939,-3.393052132792478,-19.33266323014297
14.570731986146043,-7.861978464364875,-30.264273573334584
-5.489169767800429,11.758756173116264,12.324130383007814
2.7461264706426656,-7.141896638314921,5.160515987127699
-7.258928372644855,13.208634012223037,-51.19195009562625
9.422211351864911,-15.899469772486457,-9.233905151571038
12.3144492286688,-6.522056127340614,-34.84920694584739
0.4163419138092778,3.481564198553399,-22.557397450375543
21.35457139118447,1.3734600031035755,-22.75334435403263
-14.302594200867167,-13.312036785955067,7.685287341918654
-8.328837138439892,-1.661609975487636,10.00581623671572
2.5859961136142626,7.396735583736858,-23.823329122526125
-12.146718393516306,4.271382723761426,-54.45761749953192
-6.547857683998163,20.384673849925253,-1.3195152035820177
4.313692273281941,-5.074004127736328,-25.801874838511395
3.2153144342713533,-6.919107967876217,-12.75767718486877
-4.273769208986477,-2.0673730023878036,-10.067381426830135
3.528817772661044,-13.192900816216634,7.558210741678599
2.9821578917266716,-6.020269272047738,45.17759873833949
-3.7169562595526564,1.9582835224563766,-32.57909239174028
-0.6350402125255645,-9.329244077365455,-5.782432860452529
0.4182150389315658,-9.627243351520747,-16.88902973110834
0.06270230226604845,11.999248366953495,62.92400156716724
-1.4514116004520616,25.36595179762068,54.35123327692306
0.5608863321677956,-10.472026172957547,-12.887228323243228
6.416752929653125,-4.3332414148761655,-9.043411275305056
6.752650370883707,22.000954177397787,-21.068943368105078
9.440128719618269,-8.288183430920125,28.470918210645607
-4.758532261709256,7.485504912281542,10.20976678015774
-3.4175959939578555,-9.761243796844031,25.085106517756294
-9.422226721458273,5.266864137534241,-43.91214500245863
-10.66497303537452,15.533612743780067,-11.755733570073259
-9.953769514558365,-11.44275393256277,28.902459019522997
-7.40406945310779,-1.441984212525861,-2.5398146147797873
-3.706218184134469,-9.63979153111085,-20.40471477593496
2.8120138303101516,-3.024770803599498,-52.854356974631386
17.487015052954305,-0.6713007440771375,-28.786840472855406
-8.698416213509555,7.126543650650925,-44.67341527164721
-17.08967438532802,-23.43183438364385,-43.32971270795662
4.7275870174294425,-9.631176156455128,-28.444153513709434
-9.602632504529005,0.9885801685110185,-12.783812503764722
6.357017243871459,-2.558318509708481,-9.82253548798208
-14.569593861719895,19.035928222730742,50.77907229089041
-1.673971472791632,9.955636004823612,8.411434931940239
-16.512992555705747,-8.121030799698222,20.324937382958773
-5.613101591858888,-12.03858701906953,-20.257314483565874
-15.280767625368751,6.218924144293839,-21.45065479894982
-5.630825385822744,4.698121308232316,24.302317923738773
3.5861114911989223,11.627442742954623,-2.2063609736561305
-10.425231155093904,-5.211249774795902,27.999651642235573
-1.884503864378018,-7.303109385529275,-7.095625253994444
-26.852256405092014,25.987554172489567,3.0543857629915583
1.219879195726444,-7.005888075625125,16.366391624543287
-4.486840759491656,13.024963972608422,6.252298127214179
7.124785856161537,4.818235485114236,-37.68981833659517
8.005146944284274,19.919297596650097,6.709818301862497
21.697872933639935,-8.642955861965783,15.202267715273548
-9.410974941517152,0.8396745416309206,-1.3845572998811178
-14.156317418051783,-20.638560208299104,30.669873300530007
-1.6538411340982837,-12.728736178671115,17.040567387660506
9.177527478970674,8.211865694119343,14.395946024034146
20.76649286909393,5.2547172683030094,-8.09518091605125
5.319840211473932,-23.598097104254663,-75.82886861177676
-15.321583348129938,4.4199972672598955,-1.2989207526613542
4.130282832080532,3.001357170701634,11.143581753341675
-0.10236073611565133,0.679064395922285,44.27213772102414
-2.059667558889718,-18.532440585580044,-2.6885511266292204
0.939191683189345,24.408760583292626,-8.478370594044874
-5.1416035738658845,-10.198665353724516,35.06990511195413
-12.751368293604774,-8.785480241380144,-28.764820670088046
-7.86930005015153,5.5399416277605456,69.78786004222185
1.2790942370178136,1.5127793944112597,-26.489775236070077
-4.9768404791399785,25.32495387544194,10.08518200219102
0.3345911200020568,16.162919669748984,-21.59638667553713
-4.786223180164616,12.622001578797272,-32.65913206599806
3.0710286525849266,3.045420460547454,-37.642492107302445
5.162233398249004,8.32561849532829,-25.770749902167783
-14.522113459985878,-13.732286542227671,-4.0032409268643825
13.769691608697547,2.220090748313734,20.369845072520192
-17.045097423188473,-3.892885800117376,8.458695380134372
2.3249122763138406,20.494409850919432,-1.6073741105844652
13.120689079087008,-8.950978126710751,33.33489276108548
-6.670208933396372,1.6338934536088672,-12.929043693745886
-0.04768529369017606,12.786768040942315,-20.33267406831409
-9.440170405563363,4.4763443399741645,16.820740721037346
12.191168738397815,1.2764211077337682,-16.64050901829572
-7.018030510581756,6.742796879379642,15.968045504367993
-26.549781741227847,14.099656207603582,-42.98959004640097
1.9884252742459319,-18.871762619612884,-42.229960226600014
-5.875591001846201,-6.673044566849848,-6.104384690556046
-15.02307266575992,-17.01362126786263,-28.539404994287228
0.9011827986715035,-4.994892255501306,-17.252000287938035
9.270250453004977,5.73741702570452,7.694750436227985
15.105001608414458,17.340637728167753,-37.230635129706705
-1.7232228719566212,3.271975354902813,2.1067265589285307
2.1979186322167177,3.056768321658787,4.268041083420126
13.251294447576925,-19.440823339566194,26.558298732114473
-5.196850646412109,16.387205991692095,-35.843093264731294
2.2821621258759572,-0.6974671482492338,7.27717099060561
-4.308595358505234,-5.455635300456666,-30.992862930424145
0.1031439208995564,9.157623694864693,-1.6420825178611889
9.502299155317234,4.347455759233522,14.210267578366755
16.369130367220986,3.6248141993993177,-13.283931926199797
-5.319200091003799,18.78353780152315,-16.8721609010576
3.9284036453307287,15.794213031234293,-0.1942089096201421
-17.73789313176551,8.78679644458815,-6.551650926916229
9.622220199808364,-22.03640211297692,6.034294276082192
13.13387788102079,7.693806513356169,-29.609682947141778
6.820870958953637,-22.02055465015967,-15.97547685805992
12.260168337060357,17.961367962925642,-17.859248138819158
0.9281029998574344,7.261686605274444,-10.41088214522797
0.8129146818147259,1.1869225021779493,-3.3525118737717485
5.0519600100938264,10.101155945365786,-5.392485789815779
-3.4106132509397797,8.049017495685202,-37.71209417428369
6.300835254540422,10.9143951755929,12.215074024794328
-9.374405747121337,-5.0647230499165765,17.9733411766304
13.337350252199318,12.29553166577609,-10.572434960369403
-9.945642706032094,11.959769739818858,-26.395697543180425
5.064905500802352,2.500599254086216,-32.91215012687107
2.537761968904185,-20.365607571594794,-45.839536249449495
6.329863496727679,-5.59532008440455,3.195542864403286
4.531802054512972,13.843502633331486,-22.95128844692378
4.433029542075996,8.25169682447473,-23.018564750912947
3.351656713631699,-20.58438850979571,44.30112103841202
-8.691311620616997,-5.106586399311421,17.128172793952096
5.3598351492781955,-3.416326289531195,62.61812050166362
2.3390906175471566,14.917112608042231,8.48862085593674
3.4440949737788085,16.113124039700125,-8.186688187754998
0.0013764437378876592,-7.3996366168989836,-4.308210568809958
1.3271902027299052,4.749666771603786,36.34198836494199
-0.522443641151139,9.578777489367898,-13.758265420061944
-12.092401136043776,-11.27947631414696,-13.906960791626032
4.588626832262668,-7.8107930361788815,44.862189922150925
-5.906465597063319,-0.3724602205974361,-24.075716092028607
-5.288419064730889,4.156157522057216,-7.601448376084014
-1.3481739342562846,-16.49272062251949,36.19700344544013
-2.8389566528287427,-9.64247960474825,6.337530936771323
3.7476748251820653,11.659895051881717,-27.392249261027214
0.8585056320819495,-15.537187803726415,-3.322406867428894
13.935869138156892,-7.910744750828268,-1.9045708831571588
-21.626937487809204,10.009220884343355,-32.7877786328799
-5.713429235854451,4.933924467785068,2.9561036449513614
-26.369342568824038,23.28605591415631,-31.261240962812593
-16.134441771649332,-7.7766154996614345,-35.14654878263662
-1.830008918295025,-2.061193087237254,36.01680970766033
4.422588879191888,-6.520310354522928,-26.73105633155199
-8.064521729624417,-3.325012643722051,-36.147141997518396
12.749826305582683,18.078390453464316,-7.38126610671605
-18.105704885069372,16.252955309350966,-0.17558250632912148
6.018236925244938,-15.274622387265673,-1.1022381418807068
-2.584836369907465,-4.462831203763458,2.2906169266173038
-1.4729669008154591,13.622370887220574,3.4828058915762323
1.7068456201419981,-2.325436822969824,-9.098429936529893
2.6656790042011647,-1.4898375356435252,-6.065375451910881
-24.188588308948376,-6.054987544402787,13.586974621827144
-1.4597257093249791,18.02000517649536,-13.584252238048078
-5.2965113445143865,-3.2009745642076344,-16.320232238565485
-4.573717433054019,-5.19258780336954,15.536164156077431
15.247966884154165,2.904748053160991,-30.695499753965585
9.858453349650187,1.4521039058762897,4.836057793613591
6.325037608143927,-15.118241322891691,5.7460543241123965
-2.051727887380832,5.502560527186019,15.603615774211747
4.698895313697537,14.017849371023381,-3.8600148812463884
6.887690158286826,2.475331908181083,19.689459877489185
11.407904299851959,-14.021021161437272,-8.867449184742215
-1.1248189120370757,-7.0715953032968395,17.78029198864641
2.314548006974143,3.922646484480676,43.660649580375306
8.155078758043233,-14.810234414093658,-3.677118598341483
3.6057824459303593,-13.933678613025354,31.827486520555915
-7.439094669752061,12.670223317105794,-40.630363985764184
-8.546053820060758,-3.1064601109544405,-12.544325690012252
-4.90652125832715,-17.139081996673582,17.28333894590486
-18.437486145451373,-7.661638323212987,43.49375084338781
22.09079199986297,-16.875175766164844,12.90933729357156
-14.119127787585668,0.10753540842130443,-2.6798263393704276
6.809288808890673,-17.173969700024294,-1.2885100452734954
12.596934963412103,-1.1614424914016999,30.586101286215293
-3.4570125203077122,3.6398003746117444,5.002760391875001
10.33877685201476,-25.334335074227504,-20.51699239476041
1.1979031032163898,-3.6835944091860413,31.181350847212563
16.801730810428822,23.80339493747298,-2.015520111532522
-21.55800837984728,6.896538616428864,44.768711660524694
-9.245667858697006,7.091872470616393,35.86379211156729
-2.2215942142129563,-17.25587742505765,57.797937799120085
-0.06870318892229721,-7.730696706773605,-24.86551289087066
9.023639402514819,12.508515344597376,7.99353059910302
-8.645763755628014,-18.791008247175437,21.813622690647836
11.20300561312355,16.687016548542264,19.10804401092323
6.96679975347056,25.58129959794273,-92.13238232692387
11.048014524786819,22.248652227224625,-10.317991651323739
4.2404416144498,2.0647230045664857,17.685438666281566
4.991507279893253,50.87333448190275,-1.4201980835556036
4.134268146113341,-6.0615732823196335,29.02632248191782
-10.379933731308872,20.12978842627558,-34.93477050857394
-6.763878294861094,0.4808130821789211,-16.06271126359998
-5.003594160542767,14.724775215873729,-7.631055026759043
9.960218548091616,4.5793274443479195,-16.129658720966834
1.239347490493919,16.19396310922036,-4.937872230456402
-4.953874088159661,-4.310381960714331,-10.290658187130905
1.4639660405174102,-1.6705962500902614,-19.103873622102956
9.33933376550099,-21.020754808413834,-42.9831017210108
-1.8242213812585184,11.48095846685828,20.197530771819046
-8.575862792532169,-28.668299643112807,6.711814321772573
-3.7659138142039335,-8.869538900619427,-12.46556084839055
13.510480306146842,-14.132624642552827,-9.353737182574175
-28.4109582026593,-8.523371339716359,-29.31399900861601
1.1371419128994018,2.4941306327650077,-6.442045630393182
-7.436491651167402,11.193284337641591,34.015575395816164
2.2581596561811916,10.736654567826422,14.200417598337607
4.71010332130825,6.30672087124137,11.961117749638237
-15.852497564374362,-5.866300268788647,18.263293373894726
10.613381525881131,-22.30234997910731,1.3015622873822754
4.545679067557876,-1.8360532236047986,-5.67701919538272
19.47555956779406,-7.462140639553749,16.14205009478795
11.360455971976009,3.818742142277727,-25.026753332448873
8.091381142129972,8.139301820048667,52.187674669026784
-6.5076098893215875,-1.420670594805263,-21.69768367857428
11.796632156795754,-6.603436071803403,-1.5999726286259073
1.1677380550608618,-10.744586208516116,-9.287264992472904
4.517274217742236,-12.947626902699108,-36.676111288315795
15.465102071773346,-2.3393907827672655,-0.6394850621998137
-9.668908018141527,7.442177897626123,24.634598197639452
6.2083933326075496,-7.958416493026457,-13.067176496213268
-15.020692953022628,-5.830320883066542,17.616317189562395
18.052823180616198,16.267597085847648,-3.456812462998603
1.1910201714105264,-2.203941580243251,48.198308381777466
4.863231641895199,10.955667601240656,12.593268545165037
-13.475656676763453,-5.172646563129155,44.281360825229335
1.5799776957667009,-7.572554622711406,25.462716083360664
-7.158106690827276,-4.590206190253655,38.37307759693946
2.3388783578764105,-4.180680744414799,15.643130863900536
1.6235236837010725,-2.359766980550095,-28.811564755952634
23.39672611137349,-14.579171142616287,-3.580939573095524
-4.3361635719080525,9.888012548298242,20.00254521664462
-4.025906317736502,0.8979276749651776,-4.0497847516790815
11.688817014972013,18.41431659801184,19.817122829043466
1.9471449951117092,16.80174951373228,63.969614288984765
6.671500502603967,7.506395662838381,25.937016744533935
-7.351203088985545,-0.5462327357554528,36.386600707073306
-5.458173638871592,-7.480328468334454,34.440028100455436
-10.423779529603658,6.6735882092395356,29.249273300561434
-10.06070161947619,-13.227460085453176,13.746096209685707
5.64060751557106,3.265878234112058,-17.097721915731494
5.350676581777415,4.443241389883153,7.1030011165516616
7.809664166575548,31.47956520849761,49.85521788564763
17.359716051172445,-6.5541764458996,0.3256627365919112
3.3480369290198286,-4.122668883561526,31.96369795799725
8.971219723264545,-16.961056419769903,-14.35373239135128
3.4104212437572268,-20.413207082036934,-27.234038101521207
-6.032566847695588,-16.829297053839017,15.508637678385611
-9.492875399087616,7.96411326362741,10.105820344188889
-2.706030472604994,25.312930003439817,8.267684512717242
-10.836673338961411,18.516267123503805,2.925098233179801
10.870271414332038,-5.733274262093267,39.259979574709774
-1.4424004635980248,-8.164565930442773,22.801300088579218
-11.454158899620753,9.819611407738227,44.62275542002252
-4.942324784048969,22.817964274314413,1.4650177281833885
-7.499290068108016,23.943268713868598,-13.008831274636462
1.9335547518207752,18.234647804217655,-0.6165523356681408
-7.849922414167846,-40.393033181581586,14.822716324299153
8.644521556199118,-9.854370639194386,20.61805962307547
7.072603077973309,2.540085124469466,1.9689847688263695
20.068678450802008,16.53625784544906,14.74928223737441
-11.895464240610865,4.618518214943828,14.288634865299228
3.80481335907956,0.8113663654764423,2.8553806728059135
-3.4421761452391397,-8.260452400916323,-9.411854088547827
13.114542706019455,4.898150824178926,-17.407443065225507
-11.853791947164552,-2.974109486823783,26.661055338476892
0.12187700400354641,0.809097094082227,-32.71345670150227
-8.019396892241447,14.423903174722902,-6.490574010510261
14.157051239458053,0.23711596552566638,-14.153890731377812
-3.5792409069492432,13.487525067659734,-23.168419247018377
1.2637116035628524,6.699628504804872,37.61580261908062
17.34558050930482,6.714762317549427,-6.4572248411055275
2.456946682567379,8.05165131248798,-19.49089099969997
-11.144295004843041,-6.98804094964377,-21.962567392806864
5.959876471243436,1.0853336525788426,-3.754684497375766
2.9186001349740867,13.005512082688746,24.557152657721772
0.5496620258666836,1.4594973511650746,-40.8645226852809
20.849433312913433,2.1949667184172434,-17.181933368408014
-6.815398252959791,15.598488843941583,0.2763137809540582
-3.0767972375512747,-15.294815926210168,-29.21135849439748
14.317724197768545,3.2915304591078667,-3.576096306717745
-7.817471188553674,9.929516142443367,-19.910418389805017
-12.576624436416816,-15.091136121397833,11.932541784103107
7.2871959982647,-16.487459330475357,-16.604888656904617
-13.666494640657042,-7.46599499092716,-10.987888696734815
-6.310022389723136,14.97666970875013,47.26022321480197
-1.1248508314785914,19.460755575788667,27.962114538787187
6.148310786238767,-3.94465332298094,55.52940963817548
-10.313668981320491,-1.1163180532694237,14.038641840054161
4.707961168023409,9.117714288712003,28.938162611689062
-11.150449907500256,11.602899095935786,21.669391830790047
-3.642599206256244,-5.408467976450117,44.425861426050275
-0.8581557341219103,5.55463414534088,8.036649120726176
2.4485877772352977,-19.212886819460557,-4.10547134070372
-9.169766141277503,-13.9131336452199,56.61332478938156
-6.405011864234869,4.664792136257925,11.149984027079531
1.361168720776883,-2.673557693141916,0.5294794214450875
-4.235195496913211,8.077573694203119,5.439806256883529
-20.7768165744328,31.923356324105406,-23.623253849942753
-13.387867559927567,-1.6938269834876596,24.853664035438413
1.6755491691901176,-3.3072616544405173,-17.570075627553617
2.3612673851916686,-9.021383207246902,-8.55921264703249
9.726997024151643,8.745175170562344,-6.7876366276310485
-11.610716793320465,-2.138699215467904,4.13256755835967
1.3328142703330983,-2.3954197077553525,-39.30905133150587
0.1567686938281364,-8.745116840958781,-30.592193936057814
-1.2260975956541382,0.007616958551852674,76.46863212295807
-4.095480878827011,8.311726310638928,-1.2538514887127217
2.230047984218591,8.49811065036511,-4.712537344571365
-2.919520580976325,20.224146854929458,-26.46066927671596
-3.275195222106992,-5.384168694478188,0.7577780977060282
13.142612846862399,-5.339025294876133,12.675107275964315
8.560979331189166,11.154515165332418,24.92029223610043
-2.155598670303118,9.444288572997248,-23.715995720917423
6.147230853695031,-10.704718800436195,-3.94194089956847
9.322938726035897,-4.586130605051337,10.716956557768276
1.9085346866403747,-13.978802844069955,-36.305245707049984
5.012713294598741,7.816391883370302,10.137455868396085
17.982096150175487,16.86947420729832,-42.502912652816526
-7.7609302176549,-17.613347809970204,26.355534672537612
8.952360224468421,-11.871585771258662,-0.9520559756848922
4.135094222565114,11.884261861321434,5.756263326938517
14.2051333994742,10.465405598737872,40.958520064485604
-11.391059751896266,13.167432050024042,30.943894846325414
-6.8603576609802195,-2.8362741866835846,-0.3151740424151632
3.472037553468845,25.554480195171692,29.29998167002919
-13.943989871585805,-6.1569173112257545,-6.939309229567553
0.28480352450647334,6.942951807744239,1.7889981767460044
-3.0401020171445463,-11.072478906032993,21.258035974359416
-18.934733432088404,-33.60304663691628,-13.88110314626684
-16.214405721282127,15.507359625482902,-40.918326791299286
1.4572278253537376,-4.616832226568287,15.867253355603346
0.7661492719502532,8.65858042620097,17.046046644492176
-8.257795084006176,24.136763666743953,43.12541445940446
-10.930691223599528,-3.328156329767562,1.654546033457767
4.782466214067307,-0.8748770185104254,46.406584154096045
15.531418225088364,-4.611661698420683,-10.810560465722824
-12.103686152534392,14.86563784343792,15.539094223490942
-0.5435555094391199,20.53873800051241,-10.404122965728785
1.8567728898138207,-10.905800819066492,-20.798504184737318
4.149872396467061,-7.013691218867743,15.67796964170074
-4.380647110209759,16.318839232306217,8.625940563722496
1.4241850568219403,7.268780574365523,-31.532477035529805
-1.9425808971728389,14.601335345674013,-28.698853593967353
1.9867923249009856,15.257505242988794,-5.178279920283252
-8.18441754367914,-24.04546988416995,-25.638119174435737
8.359811103709829,3.3702226041260293,-15.583808899114837
-5.192521063167162,-8.964883462758234,-21.934461757560467
0.17952282011968362,-1.1869389696021717,-21.899139610623624
-5.047818870556497,-12.269429583666726,24.914772556256445
-3.5648029457078536,1.9753662618743755,9.639048868762597
-17.841602208132368,-22.26650483103856,6.708714680669634
4.325536956807537,-16.100603557569265,-1.8318292472811113
4.101690144189696,-13.048245024496518,-23.88846777354754
6.759834115603312,22.012933983588134,-14.098937518107538
2.2661785080982173,10.5083702962304,25.92938325402955
-10.934754600339296,23.04553855121297,-40.3081094120497
-9.21695944867838,-17.160664247444384,-5.520644826017675
11.210685204399766,5.8789143314586045,16.75465339870355
16.792003667824606,11.849668525162846,9.97690421018895
9.930673404075653,3.305602919760349,15.023732466468845
-11.426420013856271,-4.678841976851147,-54.23574724037198
-3.9473445756345944,-9.22331543814368,-9.90161386288191
-17.759873313815657,8.847069038121617,42.42117278583287
2.704266383273795,-9.485098945722688,5.395588131230492
6.60784232468291,9.562203693784745,14.803345167199215
5.105131387846647,1.4788754708406164,30.900552910923754
3.7902707243525713,-1.8396623945614226,-43.22980206369521
-12.443283800879694,-16.3842300003556,-9.31257133684075
-7.298667880034584,-7.383632846567956,11.542720040961893
5.072818731284865,-13.921766108643524,-28.192702715324135
-11.728137056059335,-6.332400825471033,-19.07161449029122
8.106066500404486,14.498048720118122,48.65606360997438
-11.683625003890526,-6.907083323139336,-26.938482079162167
-4.936668594515757,-17.32474323346787,18.913498195238926
-7.3980761180001045,-18.646197874293193,8.86746822649308
-7.07833817074205,13.887318991483344,-6.8800469103372475
-5.7043326232762155,-23.245640502018716,6.01804978400678
25.082902711231547,-5.583664163073222,-11.629411356236977
3.1127102828832562,1.2135525463797723,-57.40079619342968
-3.178985658413904,5.223223149960265,15.16554238425936
6.876885269559505,13.411056964813625,41.36793177148873
-8.50941109804506,-24.115533167771392,13.157009157213437
6.353159920951179,14.95380266495717,63.24618488070866
-13.333623964479527,-0.2848892065589799,12.318284928052352
7.3524291610044585,-3.87846820397318,-6.893241513583463
-0.8412309145099741,1.720890760461754,-11.77300553788126
8.286508725308883,17.164297560247398,13.589465061606603
17.278668529450286,3.7728843413045063,37.63644538548907
15.087326794371451,-6.019823561857818,-42.90758036652469
-12.597194036672754,-24.91314956857599,5.261350639892368
1.9015155241161423,-0.06717503393728566,9.246632673333755
-8.19429256076974,-0.30200096921357494,5.842798433083585
-0.2901689657452876,-16.869573208290582,-22.53393534402423
-0.5857509598248307,-5.640040954916339,-13.662016878275862
-5.648830830892601,-11.09335639763521,-1.2622665357728684
-5.295487258986836,-5.090539792008499,-37.323435351906504
7.535017370946907,31.222094106636522,43.69581415136447
18.795934853233078,4.120277042339254,4.72078686969605
7.114383814395328,-11.699392513235665,-27.814729627552744
0.3133411383802587,-2.8899230187796663,-18.859127658997824
-0.04203694996389265,-19.17762279299817,26.810189268106335
-5.51194606613886,9.225504168692174,-47.97441597958416
1.218287573520624,-0.9234059919049961,9.039666357559886
-12.049473570673868,17.44104722639761,-9.81097790949877
-10.414725751745493,12.642661530040602,13.850772505013252
-9.362818524873584,-7.840341828066019,-0.18909643272453477
5.937494089664672,1.3406185513432052,-0.838846990385067
0.2642156935705362,10.867001322749028,0.913153498703211
-17.746887096735936,1.5692652604848532,32.61508450072603
-1.366710612745171,-18.72811286752808,-23.977531805686304
8.672763383352804,4.4916367421724726,-10.633107430799063
11.021319961297909,33.30850338429189,-17.386435268947608
-5.354530973072421,-16.99690255671241,34.550644543511105
13.547069341369722,-17.442769147338343,-24.96753653782736
-9.860696706826088,7.329231087609058,48.16396181562462
3.5845787584098865,-6.31778541310493,31.5720104135604
-6.93541965917619,23.896762764957607,-2.010849591714646
1.4134832666833579,-11.419323960239172,-27.755674788622667
-1.1643722404473982,-8.825831559038788,-58.75039054353351
-1.4218308963861659,7.351382168852502,-0.4016543854367285
-0.8315266817326871,25.44037177119959,12.536610715840695
0.284154579149122,2.418151405142497,20.241050013498764
-11.839772640503739,-2.088384810905441,10.987036749800977
-10.257135532599476,-3.589420827572904,-63.16328895300664
-10.976764844423187,-16.937865923393314,58.92867890371883
9.455938444652661,7.0709113875580565,-2.782687185292244
-6.042799181954597,-11.548914034990231,19.28485187359063
8.200925085622671,-8.696979620272769,-54.26173116928721
8.796762912960885,-0.6507598547862711,40.57733214525377
-16.762163392047636,1.7102345827314855,-32.80049421868246
-24.50378227636824,13.663530061634605,47.385996855041306
7.099637160848301,22.985385336235062,-38.011915330488826
4.829204206937934,5.179044635706381,15.209148561854684
-11.396076429891895,23.99940257280933,-12.02262081189344
3.236249944301093,-4.894226287227058,47.727806088483355
-9.492011176418044,-8.063962877794786,-17.302843534395876
-11.834963773800393,4.75383656387622,-14.399052886899483
-1.6692296109262785,3.645522261732912,6.4319505416116876
-8.624277065009116,13.058715974673467,35.83998854802575
17.152836351993713,3.7188661616587213,39.31958799055133
-4.6711844344413835,-8.891209360735196,-57.930198111408956
-10.57065977517077,-1.100278402049098,-0.9992390943289807
-13.806593637829042,8.075070278921094,-39.68413514363201
0.4404385685486168,11.130627348657605,43.74841054558782
-2.2832431496064527,-5.396633395757895,7.471607987222812
-0.7634384723493428,8.155544126806326,51.50299939001378
0.2653582234355369,-10.315545157334201,-4.366260678124224
13.112087400592022,-23.27703454839392,-6.949159683327075
10.455385252057855,-6.761949700983907,2.976073438291
-13.468108901570538,-15.039858775825662,3.3237671955272052
2.516555017576367,-0.32953766544627777,-19.37851885908402
12.77921086041788,5.508224146513557,11.039275209312173
-16.862004497066113,11.485352447710904,-16.74371406917302
-3.4611655037738536,-12.09915062020378,-15.984880683506908
8.834621632908235,6.583664156633572,-2.867306612983225
4.323640891766058,-0.9720101272266104,-18.962139618439085
-9.782563703372348,-5.370605505695249,13.591633946576822
2.136969988134053,-13.936263045535107,26.55866726092041
8.820461900218675,-10.979788817318948,-13.417732918738729
7.686894304648986,-13.9972808584085,19.268828936228388
6.377233235587436,10.824796858169151,-9.022961077466734
10.510227684020624,20.73120678068523,-13.948368493723258
-4.619075148718747,-27.500927431279504,35.01886182013817
-13.439483918863393,12.224690985850208,-23.72664600372539
-1.0076647347084775,5.247662946108175,25.22661730068053
3.531080253644418,16.275871432238542,-22.55571393958403
-11.814453992854661,-6.139542391588595,4.039459521867343
20.132218029441834,21.5055163616204,-35.42128406021051
11.493735483466407,7.312619666206614,18.703594703000935
-2.7134103443909434,-5.3029148670094814,19.164351153066193
4.600502782286335,2.5722799402695085,-12.457915935136345
-15.242250426984945,21.984997233175505,-16.93760101565871
-10.289415014946169,0.5702330175378905,25.68093346618328
-4.5188777916136385,1.7713048547670482,3.024019908743574
-3.7793920748789156,18.625191115926555,19.764784773470396
-10.55109411456548,-6.279361148433432,-8.380027231718486
-17.904689829428484,-18.746820164530625,40.276636593610384
-3.652160469796078,-5.133272405079,-17.94210399595413
17.847238185336845,-3.056493993738591,2.9825706355030697
2.8125745009592586,-3.0156268156276083,5.8855785113516745
8.510733172621984,1.2301170687239087,-26.14266389010205
-1.2711678608794323,2.7082525850033576,15.159087848584168
2.3991308659746533,-2.4224488492376324,-16.38697467347378
19.81515061821021,0.9932815150500642,-3.003045746974181
-12.270910922767326,-6.488384859441226,-1.935700418894965
7.365963767143207,-20.240273463297626,8.40143273603375
4.214237642906443,-25.848468251264883,-51.41705253601948
2.864081347176894,17.408899002703976,16.3313423242077
5.487074169803554,-10.872290740155252,-15.93613735142652
2.7885758009531374,5.8541810492664235,29.062600256186293
-8.80526685531516,9.73906254883446,14.804111921891403
-1.60746094189098,-17.625062393332463,12.749460621760871
28.051391088096377,-2.422817725154104,-3.1437278729253744
12.191514478906882,10.990468699516352,-19.252060495715376
6.926869853708401,-18.374864592999966,-7.077474275829718
6.393764355243784,-30.57280587788333,1.795734418368059
-5.507854165316882,-12.95645078536506,32.167318426142316
-0.07623196512097051,14.96015347350501,-36.35590250030292
-6.498727961494639,16.736384067187842,-28.451780862924885
-1.7445050585130941,9.795611780302671,-17.5843238778734
2.4580785595064327,30.505512025843174,-30.69479995730214
-7.093718184033718,-8.346757740273887,-7.310270137873268
0.1747459206015167,7.751193711860369,-30.468686154762743
11.199964682993711,4.856253571063897,-14.50803353701676
-5.7833885620132195,13.013929683072607,-25.49690336117413
1.282831209891913,-6.519549624915485,-14.586348175019124
-6.7648602016053685,-19.843807240559165,42.21605992058983
-0.7928510179794388,8.883109581139658,-22.965325944222027
1.8939312008743308,4.886330728084551,-71.02250014760307
-16.770168502510153,24.61254335946098,10.487316409915824
-5.204449382482511,-0.7533638711456954,-35.228569927953366
3.228515452191438,9.926212036239969,-4.598896451609166
-31.520060519513464,8.96277757517267,-41.86017174566986
-0.9050260043412326,1.5970689163108989,10.350354958938707
-14.88553246412922,15.748049985612193,-79.60602221314748
-9.48215504322105,7.617924291197902,24.8176634704197
14.136565863534138,6.266180396159832,-43.46711404474682
8.044741975041644,-9.024458783872747,18.66748776722694
-5.514324993583729,-4.872499667341582,-31.051311138553118
0.6794129212491828,-5.531487001688473,-16.156773693461826
7.171679985044619,8.664018882787696,-4.199706565172265
-6.086617858861889,18.713838719757824,13.229130072553197
-1.8344731718691847,5.701484167613233,-2.0035107544233335
17.79697559279269,-6.619369449837274,-16.27495987544657
-2.7928021569389436,-1.251601461612225,-36.8436812429357
-4.756596916068549,1.6154393177576911,-2.203118659507076
1.4293208412515934,-0.4883215119456102,-7.386998458057378
-5.682487364384846,11.095861952714076,86.99153098824671
2.575263700729011,20.193308319393793,6.284143169849938
11.158933173482026,-0.9905257443230971,-63.68399436368229
-9.225268775454152,25.4563457149713,-21.610875774657227
-1.3116895897122014,-8.883096892498788,-19.294688925296363
8.708070886522778,12.621933483394079,-20.66128309720344
-1.029341227294844,-14.70079713749032,-55.73445707384269
14.075515725384998,-1.2844909542754344,-41.846197756155185
1.4308258594470582,-7.16894759646377,-49.63596448149159
11.203100448714274,-8.694344779755232,-2.0681665797264697
4.921191168470277,4.384528925503409,-64.50819420289136
-14.67350783920198,-18.447980080400125,-23.07334293414228
12.048856594769468,-9.768128623455544,-1.2026290387229066
-6.755441068361638,-13.535037146715315,-27.544975872087797
-33.49815699122628,11.52274080413289,-32.263604929576765
7.210415214728401,10.949450308143376,22.144638343979853
