-2.937370877804024,-2.5502040728871767,1.6357106840093019
-10.161738692739348,-27.02906852099015,3.6174589622692865
3.4690102727525405,-5.224430561673059,-3.889337463749507
2.0978039572702394,-14.916803821086143,-0.3432079174276819
12.797150280323033,-5.185552480512446,-0.6950345193750368
-0.6201538564332186,13.415066876922033,-5.132760935821749
-2.0521538585698345,40.96744353735781,2.3335609605689367
19.10048230471708,18.306878924880632,-1.6511268311715313
-9.221182186852785,-19.55162196081406,-1.1996453793946227
-1.5325420829234082,28.901427814453708,-7.168975838013318
-12.012854165200997,-39.60445663524151,-4.01239210255557
22.211426532016194,-26.141806305755786,1.100425233200347
28.474761293090143,15.582092950278573,-1.6718460845906746
1.766667533576951,44.378971498922525,-7.91783692461317
3.5726429452730026,-12.73545851956709,3.7958132583098947
5.426175409374934,11.889179108951978,-0.49491731112048293
15.797694236021599,-67.20245895501556,5.708045507156108
23.774151006322445,-43.59727361242638,-5.90726572206076
-29.97348818874461,13.637361319007221,-1.5460894790159596
-4.882355681115444,-4.7352157751740895,-2.5356242677018797
6.09486982180736,-99.56365902759461,0.5227424036232734
8.110048515948543,17.304988737752236,4.474653007096404
5.402585603755845,-19.363974019396682,-5.009504140333545
-13.241268139498546,-40.84641001482403,-4.679437745489239
33.327519723191955,8.833224345850805,1.7843988382153324
-7.681195292258428,-6.320416745860616,-1.8383574773507703
-30.998498467035148,26.74191899371917,2.102095604981091
10.148576837192717,28.19589098433973,-5.8568116551214064
18.179610327085957,1.6367421629549153,0.6643013471433942
0.943276746374429,-45.29852080512793,2.3980520851231755
3.276140501578425,-34.804621829049395,-5.045667104888434
12.477667394883147,40.97620020534841,6.182905190541851
3.3105271832697296,33.09884000014637,1.210705061309619
2.3731868317603007,35.46962914279314,0.8886451361607212
16.34426807381775,14.08880906442694,6.766959211473593
-28.39749997602036,15.273925280527827,-5.619034459732663
-20.063671513283673,70.04855158604953,-3.450809987803107
-4.046017663686951,-31.403423327394563,0.7155451365000043
-19.711427779521994,-2.864574117362427,3.4535731008060155
-25.401172322457686,-38.1823637383947,5.113509617119244
4.948538190877728,-15.083046967262527,-2.363411889197964
-10.558803627578365,-45.606026600879865,3.10212054463135
3.6313778711684535,-16.40552326859071,-4.902763086808742
0.39803950495871177,-39.99386393683613,-6.026032813293879
-7.6139171696179275,4.854826837574704,-1.1752948560255547
18.66382167568787,18.39621269119282,-2.180003876096554
5.230139943181771,35.16980242152413,-2.2812927519947825
-16.24705152582647,28.873984041402736,4.20106353156163
27.412097152765448,-17.90127230035809,-1.7699668723685733
18.911808148307568,-41.01817102273858,-0.6580164324987158
12.062650410568228,6.598599385689217,1.8763023964084762
-9.330785359496746,-28.231797915555276,3.3645813988216986
18.23167265615185,43.420471559031206,-3.2211049490283497
-9.72268444641946,-36.02798076936854,-0.8790161533155942
11.170730137181927,-48.09226760783537,-1.8076399137189891
20.229957861600564,-0.552817910939378,-3.428623740300668
-3.5603088628979744,-14.66730980248385,-3.432202472270085
9.55256230996812,-12.982860939233902,4.384441586297777
-8.055846690873532,-32.17413317628497,2.6575564854008924
10.090529112145951,3.2568546892175148,-1.0670288249980187
-10.228285020943401,35.60188394626332,0.2316275201487858
-2.6151658375805704,-30.857988247541208,-5.0226318689310725
-10.662341534457418,-0.9055487925944096,1.0762058925715285
-10.662140835191298,-22.61496704054823,1.4333841544236814
-23.148966168240516,80.27308488770137,-8.455749975641131
-0.958588342882083,-12.742037066484347,1.8374679044037223
3.741204713844288,-42.94859360998887,-0.8607584277196372
-6.6878733223132025,-1.4932310342922368,-8.224599958369657
5.61215785522742,-23.583981148632784,-9.04563517283343
40.740382365630275,-18.632725100326855,0.46639170775459937
-4.376471600907361,28.235897879364618,-0.0758110131955146
-6.546089460475206,-18.006734847588874,1.876827563403419
-39.54699729629059,13.742783859481102,-3.158717044764165
-11.440804072933837,3.0179077022583685,4.427750601498257
-9.05875193667049,4.995043943176695,1.2988079815552496
-11.278803695300322,20.7732735383852,3.9715257286371575
-25.554320216144287,-1.5838180473732693,1.1226090726888103
18.584079219613894,-117.44015448569226,3.4049808201522254
11.727508124660137,-19.173594245909374,-3.528927040235248
6.017858558181401,-30.525874906346242,-3.662253433780037
-16.703758778471467,-1.3782773520732667,1.7573214224719451
-16.405279858957122,28.81152748117526,4.423386690262367
-6.529669465163221,12.90426202216577,-7.3174519145178785
9.557499579069582,-11.293588430219438,-3.4610442706282973
5.82683695333984,32.01872236893778,10.784039009489188
-3.863478360820938,-42.17851966725585,3.5184855414756644
-23.32405495202606,8.812983975594681,-1.9865575596058214
-5.6546300840886,10.570637886234453,-5.1669216153313124
12.096299369374497,14.181151746196157,-0.5198577850103924
11.953000350563736,-59.57037148004502,-4.007670347166402
-14.90750944952687,18.223953092320855,2.497976504766196
22.721899652301126,32.57698658769631,-5.629521823165865
7.952254028674933,8.705475621776115,-0.6605788971299744
0.6377320846490854,-14.88463436517154,1.035725230686028
38.21343504753389,9.63556023187972,-3.9203025219887984
-18.37148758224454,-17.423588659232365,-6.375205276359818
25.794723976252214,-27.299529246710055,-0.8499087790914786
-31.754860521480776,-30.530163234914323,-3.158873586533374
1.680599295647337,-54.11060132908898,-3.3612796540026664
2.1437897981622047,3.207437847584936,-2.817323188515206
33.690613277740304,0.42467501315765555,2.2310968977855774
3.6500461424446478,-74.7691419618477,6.997902721694515
1.7701449215508926,-58.234540209910534,2.2178784189172633
-2.8225140830784414,-33.62391244528199,3.85638530576063
-2.1007694876808363,-24.21030834784091,-4.15509332823205
5.027016479312353,21.964593439875507,3.230699569351495
9.239657034755721,-15.277892244068497,-1.7199347428620568
-30.5170818841447,-8.695295704222413,-2.7057256018471536
-20.98561158830349,14.31770772241645,-2.0991231321669104
0.3408823776455967,15.31452972416398,5.1053523159451215
-9.736060873946503,-46.04135310527404,2.8046041999889013
0.25221508215748756,-10.28904546331932,-2.009202002984727
-14.92612368787787,-6.0450712497609675,-3.4734105528571044
-3.459855753055114,2.442968594302336,0.4329677334605061
-0.808792640793838,4.279310012557338,-0.42380080091451205
-10.98427565452936,10.345840626029162,1.5572728271623943
-15.718526781786466,1.621813507063892,-4.9548543884183776
12.496205109204896,-43.6032950802549,-3.8899585721113614
5.6350586621594605,64.65801083629869,-1.8090660909538545
16.52445571774667,57.90431832472416,0.16058971196021285
0.35991392159354213,-63.23681316927984,-0.04383099429239034
0.7150240309820586,57.25272090603371,5.722709590236196
6.039851710449038,-52.01081556851311,-4.3198356219011345
-36.06003826484559,-66.32938908296094,5.048882926818446
-23.336555703224093,14.20155532456822,-0.8643966305632982
9.313160440070194,27.42553409984332,3.746625406868571
12.56798510208373,-2.475062182644533,1.683052919233051
-2.29933089895845,25.4040164938158,6.000535288894541
-11.78235955643036,-24.278326340595218,0.7528650257394911
-25.580951532231463,60.2678503798428,1.0953669433734765
-19.0164612993561,2.5242203031395496,-2.8948639047227935
-10.409851179782441,-67.46348240235724,3.635636292455777
1.2012705041592402,-16.915026401629802,-1.729588718456525
0.5088054398676902,-20.128367654089356,-0.382421802438537
23.854565913170426,106.88900376952087,-0.9915623494690886
32.40101960835587,-21.444821564937563,0.21369672307304777
-10.874391484963239,30.904768581751995,-2.4547414419647624
8.472207152248378,-16.421714543677787,6.519069831098693
37.27185712528499,12.16760832919361,-3.255513850288432
-5.376092408739547,-22.065482571206797,4.242148589166604
0.1826990911144514,32.69937704471942,-1.5217122709265947
-19.504680306950057,11.820168354958335,-2.1356795574890484
10.825272277250528,-6.201756335946705,3.6332197752393824
-28.953561957897993,5.99913168898412,-3.2717448332651644
-0.30922771084035816,-49.17156648603909,5.084438971887825
-37.2690641411386,-39.183107549569954,-0.07868680502597618
2.9813107497416915,-13.41342504185929,-1.3437754012148646
-17.586429816915697,-16.327094703495916,0.44109854147420247
-5.7751441394693686,-4.289119808317491,1.1825255963855517
13.78846242823772,-2.552277547921259,3.808316427788238
-43.599007467837495,-15.622767061053603,6.635368441216082
-14.628951842558992,42.9250551053874,2.393610645286546
31.561038034348737,-29.926769924545514,0.34834553220731473
-5.894727269628758,-9.092213913122539,5.428744482060888
0.10251287513363527,74.88272740212766,0.487744828446741
3.9729393449609085,-11.558727487482063,1.6764863123503415
-21.139956553904046,30.622600683076985,3.191785253114744
-25.218871356476264,-23.77046812894023,3.4567053962331125
5.839704207823174,3.664148342120217,3.939249260682391
-30.77235531475072,-16.221570836667205,0.5039619965983916
-4.835002481574107,-35.6350829291658,-4.014519576070897
-15.604926396445018,-38.22464983281779,-4.650418812421287
1.698773266712051,-6.181756471943664,-3.7137397036472315
10.774946100884561,24.046768681864066,2.621970301597593
4.627816265365185,-17.418795690196696,-0.7746990805911544
-15.459080046444107,-55.04263864867447,-3.8642753593073182
-3.928877540982857,-3.0978521551218043,2.184331584145019
16.91662312790977,42.70164249683164,5.264412465752538
40.61493466708295,-38.77500360281273,0.2288299890311008
13.872377777421498,8.639387342691567,-3.059095872544894
2.773237942697602,-6.830541881504255,2.077532837609089
5.759225433377484,-59.71997165531637,3.4078151243156216
9.959635720272207,24.196942275771374,2.3145238223070574
6.591777403884614,47.72467786705038,-6.290374397961492
-14.021104191244099,35.72283572772053,1.637071791923497
-5.55354277375666,23.046404628541918,2.000709150804606
-21.40426986266603,32.30263026242153,-3.6008004554846504
7.583219139896918,77.14406500283843,-2.744759596504691
18.54216678551562,34.195424426713764,-3.3361956920046176
30.533863246557832,-35.85609724106014,2.9285806170866073
-27.874507157997254,32.85419580740306,-0.23185230327666423
-27.923489690186965,53.45734619723485,2.674433608526333
0.5923490356894142,29.184789647933204,3.7332067337830828
-24.70388744360883,40.592231784440784,1.6938760808362423
17.472760943812236,10.753981235618737,-1.1624128104543996
7.086922776362424,-12.57884868721731,-1.0279804330330011
-2.4725813420564844,-71.55957271120003,0.16430650393986476
22.19937491034615,-12.25696300933685,4.143492645355543
41.10098967759492,22.718922153809455,-4.407083313633888
-30.835563706978895,16.828714738097837,3.4745306862490444
-0.562635002897128,22.653213461495096,-1.674929321015873
-17.56980222009132,10.370466074047258,0.9948644340876858
-0.00853688581302035,-0.8313820819530652,-0.7122067453557503
-6.746987019567346,2.931208618976189,-3.8090617432096083
-17.394727963491334,-50.53245309579891,2.3135381338203533
-38.158356837779884,-4.546961167652525,0.27787467583781933
-4.331134611337798,13.55710626660211,-3.7043744251860176
13.304714040598961,-2.097356200920351,-1.5131531679177903
-20.9137298927899,-29.317145430189996,1.0634937633315211
29.695172497507592,-1.491533280935851,-0.12623736074237907
-7.016415975993795,31.3722719042842,-4.158154198332572
-5.47901628579699,25.9010439002964,4.31568232857166
-8.44720881644567,42.35288117682694,-6.287421006838605
1.2957630178890631,14.452362463424814,-1.535089597378988
-2.319786776397901,-21.83851647385912,2.303660607191113
-18.342709372905734,-27.6214372969588,-2.1803279875252217
-1.0493896809978387,16.38469373699805,3.8551933356226753
0.8866129922447047,39.98303240835199,-6.43678958464119
-12.327288023482824,-10.452811218738173,-2.111216709446024
-6.433784111362154,-31.69096715373142,-0.5948967704503177
-19.00093281725703,-6.300078666452141,2.2589847237928025
10.530085011492966,-8.88572307468193,4.190699321634104
-21.05762857466737,44.593724271559715,-2.4327421519606625
3.2169674945777538,34.77162995141305,1.5428171744529937
7.98051702424597,-27.8074246705033,1.1219742994690796
20.856790870992445,-6.7329937671812585,3.245215339891378
20.499371583635682,15.00092629282707,-2.761513962906876
23.128078755282555,4.178624183275078,2.8112626587112284
2.0993766424544336,-8.895186706116075,2.2957273901838278
-18.68465907401318,-24.69631671835865,-2.5169711553282976
12.00498570908492,-29.79223830126465,4.2452934781289615
0.1347613121141546,46.59273550464535,-3.2924398234117525
-25.741749569294466,-7.145875407582101,-6.726142085244802
22.04822797130988,-2.5441786212768824,-4.369965257674116
46.71018933038726,-19.37973121079026,-3.476324237245691
-1.3670837681871533,-21.314415038685816,-2.3044624743102555
-9.486045209013554,27.280225221882077,3.2804376201870484
-17.02422020843759,-13.977651659217727,-1.5327072204299033
-5.001359833383954,-49.75148290000324,1.2148040253326777
16.83014667097046,18.623662416827987,-1.4941111480541782
18.594974006313404,40.617565982863866,-7.428294863251663
-7.599975308658675,29.66199519406068,-2.919878810162186
-4.339297740529121,11.707747964933965,2.958630211074487
24.564695581078077,31.011511633444933,-3.998774182049949
5.024068446862582,-29.89405594758125,2.155549776191375
28.730454425102376,4.325915852953228,-3.945901943277399
17.290084026667895,-62.29953172712374,2.308095586639645
15.482512060480461,30.553729927023337,2.0019827248843383
10.75337720667075,-7.311121740003993,-1.7798243444740895
17.25365249819843,20.39694694424349,-5.3320659277643045
-4.688332951237556,18.579606995120574,-0.5358963755314421
5.202954226384221,67.7240385090659,1.4699269392895813
5.300999306661342,-4.12140861830075,-1.8723024048595136
24.52952296165245,24.677582467141708,-0.7810798505244602
-29.737450673367466,-8.847571765920765,-8.025944749996182
6.6584594942618125,-8.848390149834474,0.10266419053790646
-9.444010124605159,54.357291171406175,1.2255484976038322
27.850096355553283,55.46578209369218,2.562567091228362
-3.7990518819684245,25.866145808605495,-0.11577653063634948
-1.362864562686019,4.494653450017932,-4.281792067905543
16.06954669195021,-11.041216298708896,1.5943595889593085
-2.855435159940066,6.074305879973058,1.2449776004902522
-7.1529206890733805,-42.396515302630924,1.7549151897746706
-10.005928529128896,-29.86351795135537,-1.2068233826225996
22.61860208183353,-33.340399576179856,-0.7403601773890875
-2.9638881175516976,-20.13458860976868,1.7766015065164529
-2.170844624192203,59.6336983825162,-5.8029140462751885
11.439535104639141,14.515358038888774,0.1956484563340308
-21.10024345043109,3.176721710713413,0.7039114985349463
6.941933590982116,-2.001531527042184,-2.4284251880335224
5.409450861187358,9.43075486672674,-1.8940876447104638
7.004904986784733,30.782268843240978,6.012216250079304
-17.080007100762327,-8.971142312392365,-0.5535095197824087
-10.503721025727158,-38.267681152685356,-2.175408723496653
-1.3826527200416217,12.518759671783156,3.808253367899945
-6.812889849805261,2.2843575844538457,1.6957034881345476
21.570123455673492,-7.392436226222837,-2.0459571632925657
-6.118737476539096,-43.143427368353926,-6.346047793821727
6.67376228967143,17.004762652219462,3.4930000692147445
-24.951668194337255,31.025703562727518,5.427930907431345
-9.384701806000663,-22.505749610998127,2.038641484898278
22.118126057839277,-25.89691443286914,6.217182791735517
2.6724534790153878,14.56186491558539,3.4623597496556298
-11.23372414986276,-31.506091160452737,4.752459240950985
-18.164215070227204,-22.81132807979641,-4.083069546255917
21.57126318355319,-31.131321024632417,2.639257139329003
4.150067887355942,49.23575442062738,-3.841374501412087
7.614666414473031,-56.213042689356804,4.236190693239302
-8.307599235895363,31.012306024850577,-1.3438996068996487
6.693595560670035,30.208517036697774,3.208351027420215
-2.898761852492052,-5.729456896054712,-1.1060395515569341
-18.880387995497195,-12.101651463769784,-4.59451453376677
29.50299972919316,43.648347801265665,6.039302747812688
13.353868895119087,-32.23963728300693,3.8554558505440646
3.7478979849175516,-61.02900226115391,0.12389841534050211
15.467009128390451,1.3256042229971692,-0.4079736339560177
-19.994135144359483,5.119350644180383,-2.276323584006189
-12.748583385441819,15.134359622890704,-6.998389378294818
-5.181466711573166,30.367011372286726,5.047794413736567
-5.16008085728469,30.563724753021734,2.538720082570577
8.873023774118469,-4.598469557435493,-1.236038927914848
-9.501674531556915,40.417190669918035,-4.71852979648548
1.2907302147163866,-2.6562509160019214,0.13446983095800144
-5.3297967026161865,-5.0909955428629345,-2.8767326952274668
-21.23034595232971,10.242085599556399,-2.47221085870675
-15.434790586774096,-19.628845161428934,-0.43171366345266776
-3.536393039649834,13.580761769741844,0.6005124838213548
10.128297815867755,36.856553054293585,2.5038194857060496
-0.07538222280550845,3.855841491019052,2.7380965011953418
14.410287705717428,-3.7123460714973753,1.7798016992395402
9.076267069428095,-7.7235137692263915,-4.338890440835391
-20.950185000608958,20.310405395980847,4.902636264997081
-15.284496741922299,74.26210590555742,3.2114252415765923
7.83931973051414,-57.53592777078955,0.9623168748220361
22.99959877415667,-21.382618799991313,2.2021194575630703
11.058172968006199,22.077268564194164,-1.5020188330344193
-13.354908938301767,-5.7179381944548515,-0.14039257903865898
-14.190714399365076,-6.6531180048243135,1.3783755914465732
-11.423462145706546,18.35082669467136,-4.497546727197869
-21.371885330707286,-33.541067835314664,-3.2961136212729576
-18.226783188107802,63.505725300602414,-2.114503086372988
25.38230902779832,13.149330404250673,4.897558991242612
-17.339043248445623,-13.648624232936085,-5.625083649944344
-26.180906017589255,-38.83306546548126,0.8217382636849545
15.511799399599807,2.229519253650502,0.7259600078889209
14.72498164420039,-6.446760880283082,-0.4173866666098609
11.88833291150803,-55.48397554921742,3.043705682506263
8.934289251544167,-36.34676829443488,-2.1883267791054135
22.318777873428992,18.246258421805404,2.287938159801361
-16.90298374089177,29.03554632626407,-1.221209919033893
-0.7617244968998399,15.446071404926817,-1.9135165287192328
-13.72901840537552,2.799436877078029,-0.13582494421240146
2.9299025331542845,5.520028551360936,-3.116363808125208
31.953603939456745,41.03134947140832,-2.0207646500935468
0.4508577126935799,36.969122282520956,-0.16485249902964252
21.404610080282755,-9.957190550820274,-0.07553733090058509
-12.156788120724565,3.4538273020171237,-2.1382793947491607
9.794358851120753,24.597758808092312,1.0579341222069965
-16.402846483076075,21.46780220661718,4.34716517140575
14.24379799085225,48.838572309598284,-1.8123949297181272
-22.743540310544503,-4.553411366670232,-1.2741072878129611
0.24634471496033056,-1.155833729280872,-1.4675075554132553
-16.619753524926907,-17.121448060255407,4.75316916691036
3.0169318416651247,45.9202586502468,-0.5854023162459253
17.933506174656085,-50.358728709753606,-7.182913095677129
-22.5990026631817,-41.55501821643469,-2.3769331076875506
-21.648725541410645,-24.328228383444817,9.734473802385576
33.480477972682706,66.18341794701624,1.3434899653560435
-6.883585102622136,63.29662335463226,-2.2531462259301436
-11.564934750247867,4.569907912553919,-4.0611407120540415
1.4344298135470477,44.61014088298514,-2.7247728440841774
0.20266269165705136,-14.070680139652985,4.54881443388448
4.973432536472389,39.97026329460059,-2.3196705465349883
2.801393902873146,-34.971758151699355,1.0778370545072995
-43.011024610252285,-5.713413503772835,-2.1508686554271113
-15.007098120503258,33.72924004797159,-2.4224464486514723
-19.31841580999781,29.11639652326776,4.336547851132758
-7.330586358861386,-20.331481034817827,-2.199993067725352
14.513393670986282,-6.3791055456629895,0.15802046612510198
-5.058847434131412,-29.42188399574271,-2.5849774303550155
20.430192547795524,-21.74395325561697,3.7234860904185996
-15.892020578605244,-3.137381449268616,1.9048788041154452
2.1038803233920373,12.349406897534475,1.2424569170041992
-4.076458029050397,34.096625897309124,-0.35206883900407887
-13.339934283517493,15.35411069051814,-0.9149784018095202
-29.776371605680286,-51.43315700377474,-3.7938988890841996
-24.20128370364236,45.688491507313046,-1.5213329611853084
-31.158172046255384,31.729537594384343,-3.013255558317507
-9.694839244323301,31.18314182387711,3.4891875366675285
33.74473570675478,51.68561822850084,-2.628849586474742
-10.413475209215235,-13.80664777318547,0.6629559084933355
1.5025122661936214,50.29271066167352,3.4831468659084504
-3.0584117032013935,20.43724704569229,-3.611781193354608
2.4207294740114143,34.75505761264501,2.170335264965794
8.599260089505457,49.082108746247584,4.030846498564385
-0.4872863846598294,-4.424461412669075,1.3458250389208453
-20.624985834036885,-4.645834883603241,10.47536994727971
3.3963447429202342,0.45485123704786484,-5.1671186136183085
14.53375455960646,-21.955336486650197,-3.7215330784773446
12.921057565546795,19.277245524958296,-1.3469159608491534
-38.524081554899986,16.80508036826661,4.108488120809834
-5.848527564860869,-8.730100182735315,-3.05513490888956
-8.176687719161656,35.10381696856307,7.82612883576083
-4.8714052000993835,-37.96841531672132,2.4338255296166387
-9.3724684002241,-11.261947150087998,2.1278934276383206
-8.251222241743932,2.7336540311644955,-2.088681926546573
-3.1163714752405838,-11.363122378256948,-1.2090656511207978
-7.069283531455619,-11.502841960303437,-1.1209591370504257
18.099021992012638,-40.84069567335547,0.06317171273195614
10.950110456872519,22.163565465236626,4.111032226248009
9.063600345924165,-62.41100898277051,1.9242494590280361
2.7294914264839027,-12.09813730270714,0.02434896439451843
-24.829390937425796,18.68357162176672,-9.73404397042234
37.56310521934467,-9.100552356715633,-3.149217452309958
-0.7646809672734305,-50.860542103625725,1.353169673982289
-1.3609801465168654,0.5991843303675367,-3.316008464535179
6.210849870771788,18.351501024955887,-4.100746996004591
-25.556640610676585,57.50446807138222,-0.07756778563011342
-16.589693182988302,-0.06716402580588411,3.028689539225626
-7.987992763587605,9.200321858433345,-0.4713041172481734
14.339089493516191,31.759239051173594,0.9619505240256903
-21.82641730819205,-26.395622458220995,-1.7980343658540519
-15.788592617888657,18.364702299894557,3.7153814188974983
-3.9345414781470605,41.74947414625672,0.27928940716375944
-0.37541483316470364,-9.745119147473654,-0.02391089321661075
-9.861636654341188,9.148025994133503,6.0981175245099974
-14.866296172926948,-42.175534311523606,0.021606104461263386
10.021934279271926,-54.71755647312539,-1.3434958541953703
-3.4315464587260682,-37.0806572682916,2.022762272723413
30.292909825450153,40.578265747574136,-1.6212310372408574
-8.740939652746036,-43.36027840262316,4.548462310016267
-13.283031527593744,-9.017656318625843,5.309748430116019
-17.530673336429313,-25.3838763841847,0.1556380258775322
38.063595222809404,-12.499306972918186,6.2525385758579235
8.920303466082082,54.35501345123506,-0.41401672217470853
14.161499042904627,56.91014929053101,-3.1201954262964544
-33.00058756137488,17.547003267011537,-1.4126012277500917
11.222003330926677,-41.55787357145174,-0.05763732641667728
-10.139436609570742,-40.13002059057036,-0.6237570592953011
1.1124322825257758,3.963232918639471,0.7916058647865568
-30.834187411409264,-64.63633066655909,-1.4600280399265322
-12.421591441499086,-49.67652588418768,-0.7602105345169864
-43.51783465652623,-14.834563000737496,-5.849943935101901
-2.0525403156262874,-31.03367428586593,2.352253757104059
17.87891282973516,-36.63490189621818,2.208583893945617
6.88773276718896,36.93664100578572,2.4079918045011115
16.972442454039815,6.04517185949589,-2.74835780082703
20.623536986194235,-32.12256063007482,2.832072879448791
1.5456754248647744,-20.93317990466071,1.8667787651405336
-25.79302544998341,10.012900301900695,-0.4792737893731817
-14.563183275440567,51.55255625935105,-5.859380857555261
13.043675422445576,61.36840112068619,3.9048345533196955
-5.263319243622853,30.206656650840554,-0.8438747085574354
5.995073726631632,-17.344149668740165,0.5892628474397632
-20.15001252080493,12.888245211379505,5.4253698191238415
-12.418217750738702,-12.770464647430472,0.17363039554067186
2.646987078939977,-2.2283014549390665,-1.785910556894336
26.84620128634252,17.25594967762582,-3.2049026070659234
-1.4236374100914733,38.77682851109824,-1.8805289257053381
-7.582317791222899,17.01507479001674,2.080943275596931
3.5106221394341777,44.49956283759821,-1.485379912875203
0.6222573235561232,16.79152851832255,0.002432688136403118
8.12883560045845,21.611936630177734,-2.770717083152535
-16.14785381105078,52.331288484054404,-3.729417499196146
2.7751759070496234,6.897509093410819,5.620447166564994
-25.65956116118182,20.14796077403275,0.8074997155152743
-12.415793210636583,104.63679129752356,-1.0934410347516375
11.778686012564197,-14.882064456129656,-0.023794766489706288
19.642135208390215,23.372440151642234,3.8283956080608017
-2.393195848430896,-9.987834530545134,4.827966916313889
1.354213637044924,-47.715908127142185,-4.217992122422271
1.01310635434044,7.772611901588908,0.06597995602140769
4.099399488635097,13.503637544198135,-0.7425734462626752
2.8229967943067336,-4.520157887906709,-0.8282607047812943
3.4167232393430944,-30.36126573286961,0.18018992054809624
7.131582552526081,-59.76065468005446,2.2586687321142223
-2.9618729628713654,26.54206866811488,-4.843040694740838
13.06519382917007,-23.382980230784035,-0.9407836027406088
0.14521606138617435,28.282140788516013,1.2376153212686227
-6.202501753881123,32.81697350111824,-4.696410901209954
10.905054798109916,6.080526951185602,4.846286171420659
6.251040130013956,-57.094488100778904,-4.683714766929806
13.913725186513105,-88.84398121894594,-2.8042792512982144
-18.921280721357228,23.896264816714954,-0.6227422785691221
-6.540552737012599,53.35944792712149,-1.1151141195836378
7.606388825095422,-39.01121185485476,-0.9417593821694922
-5.614578881586196,56.195084932788646,-4.642292837219285
4.292878539851977,-7.94697384379775,-4.206733726336419
-6.063914483718672,13.674287132984132,-2.611461734493043
23.15229009991902,39.80322474684564,-3.3229396789769123
-0.5446237344853407,-25.845375996604215,2.56967226107132
-20.528768071686343,-5.82623638539324,1.695179737388833
-3.874007251799256,-16.891333013447877,1.5823715480022533
5.12485300859303,-6.148708895572756,3.230020027297487
-11.673575854824392,-22.799709909378976,-1.868923168881355
17.55751745960416,14.541575993220349,-2.920232216890379
12.61501915749811,-33.202285874699704,-1.5970761200717702
18.36029854678476,-31.289350588327604,0.7854520376377
0.24142127468541122,10.332153410775526,-1.5165808020903493
-12.290490819852588,-23.502566480066317,6.491693655585682
-18.530275208330263,-14.272130423930404,-0.7867682436204736
-11.343264914855528,-21.850742607733768,-4.764673666316326
-34.495530531246764,-24.995870891912848,2.8134693001606785
-28.51857293370622,53.734607470089855,2.2298137252558474
19.49200725061931,-19.724299161651732,2.971361283271849
4.020845880643984,-5.541045660611846,4.212099748182494
5.010000625861871,49.87210521311758,2.8379822986289223
-17.935923124101876,-27.31879187645852,-0.011342216931273569
15.971035730357457,-13.269294892528574,-1.0526171365138015
2.693892450258442,-14.23548036108321,1.106288993315362
-5.4049161284878116,21.85341530892919,-4.765779665855659
13.227723579742184,2.0883354420322444,-3.582250712633422
0.5823243334972042,4.998351929713467,0.2452587662466614
0.11087464010000421,-24.52298932045571,-0.2535290515583694
-10.789529104474848,7.440476199746774,-4.722275095830853
-9.601857667429234,17.21973216104914,-2.98136497222579
-19.16515653103188,29.06751619151719,-3.180894228662186
-19.337134373222963,-5.163904434850898,3.1824073271361986
-25.424978205039093,-45.927872121177565,-4.640820273683285
-30.454512708057603,2.7302546149027025,1.76524720310122
-14.781737498821439,22.889577283410507,2.6059623531076426
-36.711877191848025,-7.359211182813664,-1.1208573297998634
-15.033485128843328,-7.248574564118859,5.218373428188934
14.301362502301673,10.703375518562087,1.9045158234196211
-14.0888618102802,28.982057494821515,4.413764490255593
18.53367411243906,62.63177393582232,-6.182981365104652
-10.654307235262042,40.47633552102184,3.8608717311962404
11.475779260945128,-61.445943650023544,7.437820935352184
25.373155793371264,63.294985450505195,-3.258096005970451
2.3207395839216454,-4.153173328202859,1.5383910169184152
38.311589505402424,22.868172836074198,-0.5181764363814545
7.092719548246426,17.201961055769818,8.08994638912336
-9.696049998058237,-1.307743683834076,-2.0991540465701126
-17.942901671610546,10.495148257141876,-1.3703817286872397
10.715985329889921,33.75983601363496,3.3102653789165
9.860682559922589,-3.1349497297743754,-3.6951335511371393
-17.68829364009603,55.957447135319256,3.585035392943958
1.3725009549668026,25.096714183981234,3.8689955099315116
-2.6347925229608857,52.02653296635302,1.7089408283732674
4.475754220571229,24.48400879513562,2.4711266343857576
36.88828982422516,-24.777644984635458,-6.278758909978835
-8.395402265635294,29.93805489241552,0.31028745898090704
27.900227727426714,-11.160351597019043,1.7158028328976704
-46.63507964072393,-28.76778774507,2.083579350702028
-8.939586176707824,-10.027044478492186,-2.147375018022268
32.689050090441555,-0.3227559884190375,-3.6814207640874397
-2.4599738423772726,-11.046406894929556,-3.0690514058544567
-0.7729852936893613,8.642031978823816,-0.8174953558583324
-6.064911138708369,5.7195234024612045,3.533868505832425
-23.93434481428619,35.86925624008269,8.36901772748709
12.875624674331394,-35.02749700446682,2.3293921921350287
24.17610203194157,44.20804334070815,5.7607274158960395
12.724065995949179,-5.32785366984107,2.463918574635168
3.756736406308784,23.42080276676668,-0.40679443120162606
23.290575160654,-10.617667704197066,0.8978951826110758
4.842755658739043,-6.257477400329713,-0.038434443112158496
25.77266797239571,58.77969165469831,-1.8732354609817226
4.300938581621146,35.55317642650124,-2.0065786035308517
-24.497741812806723,15.226761747501447,2.617739945978223
26.543379850225747,63.840799793587266,4.280681876553284
0.9119374109784145,-5.04094908218979,-2.3969287722845842
-5.021242133780974,-30.49857443586631,-4.354683006424355
38.595025755455204,-45.49054100559545,1.2084230883448885
-41.5319827161054,-48.73455235590684,-1.9286619875171105
15.181876416536037,9.664287498371833,-0.14535050781701142
-12.557026813639377,-28.707024953396225,3.117806576996593
11.5567796544343,57.39812278891265,-0.6990963774254897
6.8822998331981875,27.36252113155096,-1.216891849440975
48.96910091323467,26.262996175481216,-0.03608619522109786
8.717980842818319,-48.846826137398814,5.099687160861794
5.310496816596312,-18.17385960106151,-0.5201266834999233
44.51866441521409,64.87193043900098,-3.055266351460148
42.86369699414307,-51.01212622527809,9.818017312828767
-1.9506180264033024,-47.06649990132321,0.7026336424111042
20.02038995811856,34.31399265702413,-3.6117587236743454
-9.576688035222503,-8.281835119411802,-3.077033319974177
10.888077096981117,-31.524607896702072,-1.6353952411664943
-31.018348869733067,19.5550073807172,-0.3031204889736685
-39.592981317350315,-4.721547647164017,0.8949473586254888
-12.08064659321447,-27.65380996746734,5.287005198437626
-12.353561311473245,39.354379806751176,-0.8944091227157712
16.16917391836357,-26.73828933366333,0.17261172271230207
-49.78266231892052,11.663447756791875,-1.514875186134601
0.15845959767195994,-18.272832537456082,0.964309367869765
-1.490833423099086,-0.7824724415417683,-3.7046428721582356
-15.094965120139092,17.709729083653915,-3.179632386753117
9.570056892336591,3.531798592410044,2.6107442743428377
18.04358689915205,18.951103910279855,-2.122368520005023
-55.08834594580455,2.707230820453963,0.661462808762376
16.261298277533758,-14.627447197154458,-1.0291553266816622
29.218416818803746,4.602001870548703,-0.4204067960589339
-27.041788959733413,12.867014324725465,-1.6617118310602994
-12.45376904333487,-6.433716148476853,2.114851102421382
0.08431685659132522,60.360945954016294,-3.1959071978823532
-20.181653135983336,20.655237409145933,0.3902184154274644
16.157116515405534,-4.489463391830052,2.7152436880167823
-3.9181844125496075,-0.4221972954272531,0.7304568314837924
7.089000207512851,20.72558851941198,-1.5669077878111513
-5.4493153621056205,6.108739376563107,4.628651751155699
11.97998600224477,19.399252557065417,-3.7443760873492478
-5.701765005762027,-19.44055890366579,-1.4767694988644773
1.2286717949339216,29.77812044197947,-6.5893565719621
17.808074743452035,-59.49425601868636,-7.243151598720642
4.328036386728292,-7.982429210232494,-1.2183874998500215
-27.52276961880026,-16.346683793560178,-0.8164983899592927
5.922236829860494,-37.00350884303788,0.21211393637158452
-12.21582889592239,-80.57984684881517,-3.347517312453797
-0.3648831995623606,19.943458989108677,6.511115055743982
-5.790530444792739,-29.379201654281797,-0.5539201034500283
-20.266298601870346,20.381275898420157,1.7731761546802236
-13.399014292412634,42.58744634180359,0.5899894048209614
-8.145588095076423,7.076311779006931,-1.7235729837592944
-2.7663704223399863,-31.520656056815625,-0.6767498697435741
18.716804029510175,28.2886117547167,-0.2186836740928482
34.33575098759029,-5.940643886381866,4.179788823924087
17.09323027913446,46.084448653447154,-2.8313239332329525
6.454021076134092,-24.86904199610946,-4.308751336956819
11.169034569479384,10.516340365195722,0.11902464052400785
14.486622417107402,44.14272278379146,1.979084507613271
-39.46136997830958,-59.07858476435594,-1.2195098445629324
15.89730258287274,-33.70199541347681,-2.7706399314822665
2.1868926449958965,23.615218525983682,-0.0026861703697370473
-5.205536072968186,49.94009335494534,-2.5706140368071684
0.13997347259939266,-23.476750689235164,-0.2544738556180328
-8.214337485632939,40.2125486434348,-3.7785814683460903
0.7600226209402479,35.47248329539773,3.2236028645590116
-1.0937844884154913,30.525028795839912,-3.442106207752304
-7.86818444725611,-24.09281894384214,-6.711299686212626
5.667369457924304,-2.5674619743104024,-1.3727961733740237
-8.19885476491943,16.166212154042,1.5529342460863902
6.2644758447182,51.367014035385075,-1.4041231521877593
-8.380037412433378,-18.93771630142229,-0.21029506827084973
-5.379498496526338,41.19952967152659,-3.573720679974733
-28.359237052935203,-28.744682750342502,5.633972974424838
37.1416294950055,69.97585854399135,-0.4803652539767164
0.019668642367877603,-22.815575353730058,-1.2744396258443378
0.3327557365580898,-51.836656930318675,0.48420495991865997
-1.239865695706205,18.374151513709954,-0.012717004985786387
-15.7100915326549,-28.901083309623512,3.3162935700216702
17.171249620768677,-12.256481044451695,-4.188030088455369
8.336895421119689,-11.48148779120303,-1.4343644276877798
11.699858267661275,54.77780947955077,2.731457827393745
10.047415480148278,-11.156272819393612,-1.1703419752681206
14.377401183669726,-3.7094326308996295,-1.9766011847288678
12.036537208280071,59.12770845893567,-2.0570251111315105
0.5612581500805757,-30.616715580000797,-6.509325447042503
16.336988732720563,32.8267083829972,8.474014570605304
-2.9008572843590077,-4.640280107493067,-3.3532882384677296
6.850633684753464,-0.338921527155802,-4.563458330801737
18.529385007053083,-7.594800877330056,-4.389951436359435
26.271118196194372,-9.468911158398337,0.4389267072867245
20.90950349476905,44.02193331406536,-3.8427882327964653
-7.144507617818137,13.356218074200454,-2.003438860342767
-9.423477699058708,80.87829928225241,5.133358070712163
-3.9699204446593206,-16.59136974239469,0.5684124801521167
11.657451483775178,-19.468564796585035,3.839027014062415
-0.5738819056817601,17.465588700988743,0.3172385900925811
3.090015819856493,-26.88314004717895,-2.4584536279655356
-26.08914837400469,34.3852024530848,-3.363639682060294
-1.7017348815077964,-18.348666446832382,0.7443352983350608
-17.139772645257747,-61.04289503254026,-1.5700746333361342
14.820234559061001,6.104965651270585,-5.138915724627073
-13.237086790445641,39.57155680388512,2.778573212865229
26.102165918002257,44.585718789894536,-1.4323247398366243
8.095054126554349,-42.93598318326,3.8237337908352442
16.93330874802862,-22.5218160994734,-4.455985222832194
26.229439176535887,-7.8270352688579345,-1.7132451887232123
-11.630456251627677,79.9637745881855,4.987726805910224
-10.455775653862569,16.91671383588474,0.09944527037533511
-4.527977169922641,-26.999167890945998,-3.058913330914521
-17.195380005703015,-10.468475775996696,-2.1969708309359963
1.8371416398208895,36.083761441288694,0.48622887372082557
0.12802441930071282,9.656524157194452,-0.0698379762306856
9.390212066327903,19.946733166799294,1.6787819717800372
9.919955904873857,-7.751777402991823,-1.307591783544876
-2.7460084839489367,3.373710354273222,-1.0126696760338305
-3.5927140406044624,26.45461428699418,-0.19629877958600012
-23.568078970055023,-15.528821931057708,-0.30328145665560347
-18.741777416637976,18.170133783675933,0.6347144945914595
-17.947809266522995,5.610340957638231,4.225689647015936
-17.356305989443126,9.425715612215042,1.5139398543639146
4.472338433928245,21.608191272807918,-0.6549966401972203
-5.851236916118605,-18.026350419145356,-1.8601587975187732
21.320598370250348,-22.488998178117363,-3.284123561954862
4.936668457079293,-12.127155318994921,-0.671898413079854
-4.730232720392701,17.69973275098908,2.507825453564348
-21.496490203916387,-0.2698673606492351,1.171372246185005
-5.454994446441518,-18.148784372120446,0.44931507495369394
-9.494853797012968,-17.528028285268096,0.6182101429625618
-31.813516051811845,23.464372618490977,-3.0591511691233637
-16.079361065575554,7.962365773884028,-1.5569337202812388
-11.41914887862653,-3.9140901548665843,-0.7502937289319771
-31.32884470178606,17.939774004751825,-0.8149099447279512
-0.5709946651371051,26.35975055590592,-5.497813983140904
-9.278300607181537,11.79725462028756,-0.09837242971174621
32.87523427331862,47.981713040019784,0.6612183971581485
1.8048696826904471,-29.15180618392596,-2.428558246994254
8.876986856808621,7.122805880018286,-3.070711248368407
-22.56797098145593,-19.148014504307604,-2.7861604261707913
22.878885745585933,8.473498345537056,6.485380463358758
6.062770931193622,17.11680506450408,-0.07071957775761673
-10.653213529982184,-27.094968462552444,4.179440528973056
-6.029532119115573,66.72151204763931,-1.416633700614677
-11.442032062489165,-12.220830308910475,-3.231567903254082
21.862972616791275,11.62557775672501,2.97236732280713
-14.068211856978344,-53.24864803888345,1.5214876144426024
21.228288740917776,6.509162075867899,0.5339712884530238
-23.234665677412366,1.3952375830962724,-0.46804125218972703
2.4103185402898655,17.33979245272782,-2.124993987631592
28.934482052020076,60.25187789271492,-1.272997929572453
-5.067495372095227,-15.989293182523374,-2.3452908177892247
2.489597659302441,29.841616626488186,0.33827041823769777
-24.655160641276876,-6.479021024798002,-1.7993627776571375
20.47913442892913,-51.80234058083871,-3.4338776485463027
5.349158000841175,27.88198279702383,-2.5959615686672386
14.24411771811487,-28.16271517826014,1.3492041545852287
9.433611113685103,-10.263630340790883,-0.6171780905285915
5.23796877248706,42.480764291401215,0.2511820533159303
-9.093105713858474,-101.46043111664218,5.853534855506513
30.202778723455737,-78.33213138776448,-3.262319623909046
3.2935457003297217,-1.2643832912843112,-5.324468675476346
3.142814836383971,-8.042981935481649,-4.27725084540972
6.517155880361534,-21.948243193955452,1.215423627914889
-14.305878955788392,27.04308989226439,0.3680763532159167
-4.851151688662876,-37.578755145190996,-0.4471322225218753
-43.87813891881808,28.840129572293876,-0.3518848969127927
2.9629561863992673,-22.06427439274279,-1.9559176516002086
-11.75723033648228,-90.24325185389982,-0.4293432614983283
-26.487378305220965,43.09791070221191,0.4485010565584231
-2.255182409324481,-39.39577861706418,-0.9205668950523249
-4.935779524540225,-0.9170064387425622,4.470445846333494
0.819558822780987,12.93099311668197,-0.3033618001175839
8.511050540222076,-19.626744445165507,0.26803479058816804
7.0995048000645875,33.471121326650504,3.8005538583430694
0.40504024448116427,17.840455619650534,1.630760711949302
4.360958138310946,25.199339679921202,5.129917456082284
1.1349500305621643,43.95932428754688,0.30691400176210726
-1.2781675042592273,45.39522236578726,-1.229381747855063
0.3399993661997487,-29.93760771708446,1.1280987909200662
10.345715287824653,-84.69502454755711,3.880904369323559
25.89516531259357,-23.98910057735419,-7.286248714724206
-2.742819748799392,4.7624292797882095,0.6873974825638514
14.8479324265647,24.969914829879574,3.9921506155753312
-6.651374440408307,21.33401043846902,1.3635454872923227
11.255828617995306,53.39958091778535,-5.331758707811536
18.706425366145293,-3.033272846233259,0.29055457796421846
1.6754664103575134,31.411337314311,-4.916756855307495
5.608274318031046,7.828107507726332,-4.5337419286122564
-15.86868008918288,-24.35417313562478,-1.80278667327726
-33.338365030704544,-41.22944612852419,5.0610272036958115
17.21760731065289,78.17315477243963,-1.6751041115435166
10.089493578014025,0.8167795537651723,-4.913853369082739
-1.1762776150669443,10.60340015046688,-1.638432078852488
-19.837516291568644,3.5198699429706077,-1.366631593787178
18.742288523537695,-37.46925470634521,0.9543488359221954
8.24701798719768,59.684591046016166,-2.8001467718894335
-13.921693303269175,-38.510760858251444,-3.644354131860425
10.166939832777684,15.38630421946484,0.7296194567812825
-7.527379100238117,-35.611888474823076,1.3055717644915552
-3.751300753893117,-54.61277923072761,2.7817872890047424
6.075676406882696,-14.687257256168207,2.974196314117289
-7.882293370970721,-43.971774555696584,-0.5504396062489635
-14.077878518203871,22.11087015099847,-0.4160803612125144
-1.8091410821355625,-0.036339630847256256,-7.249204950603828
-4.113834172482129,77.3670195285373,-1.8544161891543358
-14.563074454066811,32.33059921402685,-4.156792537749583
4.318624857469191,26.194944508894082,-2.914944005023634
-35.523341028943065,-0.00956796788989398,4.015858944173817
-15.764908501497594,-6.815814845130945,2.589039469643382
-16.591559853840177,52.41847088139501,2.8769213603107846
0.45141329397774643,54.950241039256575,-2.1623972540076073
38.36115402833155,-53.40948695119965,0.5430032985673154
2.4109305786002513,-16.625483383757224,-2.5405645956544527
10.387919313549352,-101.41215034627113,0.15363050045903226
-39.09478085059876,-49.56432003496424,1.609762298416759
-9.214892298330957,-23.38102448101321,-7.003457837767062
-11.768377794655345,-37.219940409730484,-2.1553030553618253
-16.7011249549805,-52.827967269127555,6.324429699479142
-19.6924415986307,-24.182165272792567,2.079918845490359
-5.761875974982785,-7.918252168920289,4.4893375972984915
-1.8233545479834867,-9.903714826801162,4.280078268788474
-0.3478157901405023,-13.852924099308748,-1.7049696923018465
20.790001539744992,15.477191519614387,4.802175460151998
-2.564177212248592,-28.875401651271364,1.9659852306676027
-18.167181189928357,-39.21160346103367,-7.491865209580843
0.6092898105778968,-1.0260321447460352,-1.1980649433860555
22.655904673240475,7.41861110043916,-4.406013893639359
5.60178129616162,-10.938171142757946,-2.473201886256795
-3.940294959038273,29.052635489697085,1.8757312589693032
5.955258653082022,22.197407077918992,-0.49824232627405785
-7.247969450851757,20.68815784892087,0.631749039473527
-5.0945578936311895,17.26013234577327,4.188550413783083
6.54118053017955,33.74756320129183,1.5100549922873185
-10.13822356396074,86.14291052508604,-3.200511128528278
-2.0877114684962517,-39.48591068223309,0.8968147116565189
13.252265447929211,1.21950841019104,-6.475225965163105
-2.4265540341151515,7.566059650147836,-2.2736322234248245
3.0968184496202547,32.4948335946882,7.759450286767901
3.4211683368544223,-84.91873150494577,-3.657039525458926
10.59272199065866,12.527973235559738,2.4522833888685636
4.955163216586534,-16.35387262649291,4.509817466331981
-1.0099235129582935,-4.5776812890074146,2.074661042018978
19.765541738368846,-9.946938870192284,-3.926607486144682
29.321083231547426,-5.144031026553196,-0.21289469452435808
11.161330003408347,-1.8198191425053711,-0.5073649374208875
-14.759736082389306,69.91672415945291,4.3748019418363375
3.1779053232188175,12.487173313429862,5.852923499019303
-13.906539799950252,17.141004500730663,-1.029149453794109
-13.508420069342327,-32.106108025713844,-2.8484175088127035
-24.738097088996692,-17.652349212532318,1.695936252673969
25.06579925784004,3.4741526423155142,-5.99005679537106
-2.569196859428246,-38.65323501613836,0.22730664785198632
-9.67331339256374,-13.27962416359199,-0.018480197799131685
-2.8588937231215787,6.841325187764107,0.6198994521827158
-31.291664916799302,56.95829157810144,-2.36587921993121
-21.10723208138388,0.6156294865588609,2.8609730013733534
18.725936797483918,35.89487066444643,-4.005558673096238
3.026140876460586,17.782055043282853,4.980039177434449
4.127168073872948,18.682976756574163,0.9945034852461904
15.25706253900762,6.719435988875474,2.735435633735688
14.306502480100956,52.894177997266475,-2.8617595615626104
3.5380818708817414,-20.6470643356362,-1.0769828000877733
-21.676127962886355,-42.18836357597619,0.8758145193407126
10.432420236350266,7.733560993836638,-3.710003309617382
4.4399277138317865,59.47169299184166,-2.0614040736655395
-1.9724210140236909,19.085546421523112,3.106564317109279
-4.57066748338139,-10.290851400163817,4.510710981994208
13.92715232564988,-26.723586961726824,3.4790703224695902
0.7070251998384787,-30.481792429263972,2.591772850421355
-1.14066008136095,22.25043415629446,-2.8218038575777133
-35.51750227802317,-4.078882008252578,1.0527451879515262
17.71701467491085,-2.5772227379470407,3.0813809926145304
7.956501344283927,10.025734935662696,-2.0639938441066925
-2.9832589240951677,-31.66805241641193,5.968566768835015
26.489826685776972,51.02550251334993,2.123624362127941
22.389724355873,-30.555160677174765,-4.356327971928147
11.567470527984009,31.57376786208081,1.3124341471073033
-5.540093502754553,17.496328260677092,2.524405359859549
-13.854156494097484,-42.002327036853735,2.6453870291327353
-8.733824082806114,-11.417486205771263,-1.3503234654476848
-29.315751427843427,112.63421910167129,-5.5980361319651655
12.518729094578472,-41.300541255309994,-1.4507023812593645
16.13360078158597,38.42963089834642,0.47962848652563667
-12.423913134471965,-16.675457190176736,-4.679043708825608
-0.35726118010688057,-28.636599499891467,0.15850813347725273
-18.346035168999936,-24.03541407190484,1.2555289045673457
-11.46755709410288,-30.73527821934595,3.509959876592998
13.348613443618813,9.114435286808149,-2.158439899551077
1.6170369612862083,33.98569019086243,-4.209730181750695
-26.073358144781054,-29.74836522558161,-1.1809777579412726
-10.496887182376453,-21.170226636145056,3.2638153848244196
-3.6788548338052234,4.951736975494193,-4.02976008963688
14.77313257653889,-52.3996895831024,0.6576068033060096
-2.7192831878515085,53.02388972035431,7.542879746632023
-17.44346534387101,-4.946688112527559,-0.5416603724225088
1.0498072729587107,-2.383569689840914,5.797706037418828
3.727944939420177,24.3642924109286,2.9699087569445637
10.578660763800864,23.39413427343733,2.433681162185188
-15.463459927343525,-4.190477276435165,-0.2270115007864948
-2.258831281524675,-58.65682367162999,5.185121921923967
5.2523275334145865,-9.50436040478617,-1.785413947528011
1.8021407985351658,56.56402970401894,3.8523266674687626
18.089638923555786,-15.164612134692867,4.357951488151301
-10.39965396314359,-24.220147246766405,1.4513757271548564
-26.6834951046495,-16.00289397858256,10.10506024718831
-22.89267954090854,-41.44829706171342,5.48178523109945
14.195224527846596,10.272843131502206,0.3060935454188404
4.447921977460845,63.54983157614654,0.8883124169381875
2.81513896200618,1.954177622493358,2.3996676866786566
5.154007801837301,-11.846925135494097,-7.337006093927475
-0.25467698067544936,-10.186140934680362,-5.162221932417501
